# .PCD v0.7 - Point Cloud Data file format
VERSION 0.7
FIELDS x y z rgb
SIZE 4 4 4 4
TYPE F F F F
COUNT 1 1 1 1
WIDTH 902
HEIGHT 1
VIEWPOINT 0 0 0 1 0 0 0
POINTS 902
DATA ascii
0.0043731392 -0.00030000019 0.019146251 9.219563e-39
0.011231747 -0.00030000019 0.011641819 9.219563e-39
0.0060701687 -0.00030000019 0.012438638 9.219563e-39
0.0022984552 -0.00030000019 0.0092045758 9.219563e-39
0.0032122892 -0.00030000019 0.02362171 9.219563e-39
0.021631377 -0.00030000019 0.0021704109 9.219563e-39
0.0093789063 -0.00030000019 0.0078340061 9.219563e-39
0.00070031075 -0.00030000019 0.026523938 9.219563e-39
0.0043711709 -0.00030000019 0.016829526 9.219563e-39
0.0028128552 -0.00030000019 0.01221777 9.219563e-39
0.0029444848 -0.00030000019 0.0037525482 9.219563e-39
0.011922602 -0.00030000019 0.0033163726 9.219563e-39
0.0074569364 -0.00030000019 0.0027760761 9.219563e-39
0.0010691258 -0.00030000019 0.0026243187 9.219563e-39
0.0060258373 -0.00030000019 0.016433302 9.219563e-39
0.0069871941 -0.00030000019 0.0072700237 9.219563e-39
0.012810674 -0.00030000019 0.0036780227 9.219563e-39
0.0029188609 -0.00030000019 0.0042074742 9.219563e-39
0.0097239902 -0.00030000019 0.01412018 9.219563e-39
0.016057801 -0.00030000019 0.010330567 9.219563e-39
0.003077728 -0.00030000019 0.013545918 9.219563e-39
0.020837154 -0.00030000019 3.4450961e-05 9.219563e-39
0.013608326 -0.00030000019 0.0026677293 9.219563e-39
0.013631734 -0.00030000019 0.0033033902 9.219563e-39
0.00051812193 -0.00030000019 0.011406407 9.219563e-39
0.014042298 -0.00030000019 0.0025215019 9.219563e-39
0.0073860553 -0.00030000019 0.019841451 9.219563e-39
0.0054617906 -0.00030000019 0.0030598417 9.219563e-39
0.011336167 -0.00030000019 0.0083205132 9.219563e-39
0.018067291 -0.00030000019 0.0076326174 9.219563e-39
0.011600996 -0.00030000019 0.00046654241 9.219563e-39
0.00056533521 -0.00030000019 0.0048972722 9.219563e-39
0.015026912 -0.00030000019 0.0071620452 9.219563e-39
0.0049332008 -0.00030000019 0.0095865903 9.219563e-39
0.015787371 -0.00030000019 0.00078434066 9.219563e-39
0.021392992 -0.00030000019 0.0029271713 9.219563e-39
0.003804913 -0.00030000019 0.014343233 9.219563e-39
0.0035060595 -0.00030000019 0.0072548161 9.219563e-39
0.013377971 -0.00030000019 0.0052653975 9.219563e-39
0.011235013 -0.00030000019 0.016289022 9.219563e-39
0.010029948 -0.00030000019 0.0052225133 9.219563e-39
0.0073366752 -0.00030000019 0.011257416 9.219563e-39
0.011275361 -0.00030000019 0.014325274 9.219563e-39
0.012857153 -0.00030000019 0.011924756 9.219563e-39
0.0065188785 -0.00030000019 0.011785301 9.219563e-39
0.0058980249 -0.00030000019 0.020521829 9.219563e-39
0.0067082001 -0.00030000019 0.0018515082 9.219563e-39
0.011004817 -0.00030000019 0.015108217 9.219563e-39
0.0010352827 -0.00030000019 0.014232216 9.219563e-39
0.0040762215 -0.00030000019 0.015555865 9.219563e-39
0.0063230805 -0.00030000019 0.0053550494 9.219563e-39
0.00089960796 -0.00030000019 0.022881707 9.219563e-39
0.0073283613 -0.00030000019 0.0062939348 9.219563e-39
0.0016152355 -0.00030000019 0.0072052828 9.219563e-39
0.019320896 -0.00030000019 0.00065914367 9.219563e-39
0.0053925388 -0.00030000019 0.023080662 9.219563e-39
0.00023021089 -0.00030000019 0.0060068085 9.219563e-39
0.022638761 -0.00030000019 0.0021720473 9.219563e-39
0.0017136508 -0.00030000019 0.023251938 9.219563e-39
0.0061532846 -0.00030000019 0.010586571 9.219563e-39
0.00028715929 -0.00030000019 0.018124577 9.219563e-39
0.0080392184 -0.00030000019 0.017767442 9.219563e-39
0.0075911856 -0.00030000019 0.009913058 9.219563e-39
0.01075785 -0.00030000019 0.013545613 9.219563e-39
0.020558165 -0.00030000019 0.0044672824 9.219563e-39
0.0067815664 -0.00030000019 0.020422071 9.219563e-39
0.014232242 -0.00030000019 0.0036556395 9.219563e-39
0.011899403 -0.00030000019 0.014290418 9.219563e-39
0.0010027786 -0.00030000019 0.024711093 9.219563e-39
0.0088825934 -0.00030000019 0.0039406898 9.219563e-39
0.0013857629 -0.00030000019 0.0094979117 9.219563e-39
0.015968524 -0.00030000019 0.0034620303 9.219563e-39
0.020085335 -0.00030000019 0.00040062866 9.219563e-39
0.0016226029 -0.00030000019 0.0042174021 9.219563e-39
0.011911031 -0.00030000019 0.01354371 9.219563e-39
0.00095511321 -0.00030000019 0.011929046 9.219563e-39
0.005441648 -0.00030000019 0.0081903394 9.219563e-39
0.0015698595 -0.00030000019 0.0009232398 9.219563e-39
0.010227863 -0.00030000019 0.0085293585 9.219563e-39
0.0070280256 -0.00030000019 0.0046268716 9.219563e-39
0.0037688159 -0.00030000019 0.0011857455 9.219563e-39
0.0064979838 -0.00030000019 0.006074761 9.219563e-39
0.002416831 -0.00030000019 0.012794868 9.219563e-39
0.00088151044 -0.00030000019 0.0076956567 9.219563e-39
0.0079039242 -0.00030000019 0.0023087165 9.219563e-39
0.0012536339 -0.00030000019 0.023705697 9.219563e-39
0.012861126 -0.00030000019 0.0017069505 9.219563e-39
0.00031291664 -0.00030000019 0.01047343 9.219563e-39
0.0068267439 -0.00030000019 0.0033119512 9.219563e-39
0.0045699799 -0.00030000019 0.0014843395 9.219563e-39
0.0051461514 -0.00030000019 0.0090187686 9.219563e-39
0.00053729315 -0.00030000019 0.0084214723 9.219563e-39
0.007174605 -0.00030000019 0.016679218 9.219563e-39
0.0048052329 -0.00030000019 0.012825416 9.219563e-39
0.011452617 -0.00030000019 0.014864651 9.219563e-39
0.0053975345 -0.00030000019 0.015334903 9.219563e-39
0.022090776 -0.00030000019 0.0026105363 9.219563e-39
0.017843045 -0.00030000019 0.0027475569 9.219563e-39
0.013464999 -0.00030000019 0.011389143 9.219563e-39
0.005853835 -0.00030000019 0.0073879929 9.219563e-39
0.0027199446 -0.00030000019 0.023992319 9.219563e-39
0.010741254 -0.00030000019 0.016350972 9.219563e-39
0.012729717 -0.00030000019 0.013323583 9.219563e-39
0.007390656 -0.00030000019 0.00029369682 9.219563e-39
0.01122805 -0.00030000019 0.0058754198 9.219563e-39
0.0075741364 -0.00030000019 0.016127307 9.219563e-39
0.01325538 -0.00030000019 0.0078620464 9.219563e-39
0.0046266597 -0.00030000019 0.024632392 9.219563e-39
0.01259588 -0.00030000019 0.0028823996 9.219563e-39
0.0010932714 -0.00030000019 0.017094949 9.219563e-39
0.0098996861 -0.00030000019 0.017885352 9.219563e-39
0.013905624 -0.00030000019 4.2945417e-06 9.219563e-39
0.012281317 -0.00030000019 0.013044652 9.219563e-39
0.0080112517 -0.00030000019 0.019755203 9.219563e-39
0.0082098013 -0.00030000019 0.0041604498 9.219563e-39
0.0067854188 -0.00030000019 0.017625198 9.219563e-39
0.0086818226 -0.00030000019 0.016571151 9.219563e-39
0.0029438294 -0.00030000019 0.017894208 9.219563e-39
0.0042849123 -0.00030000019 0.018274719 9.219563e-39
0.0077422676 -0.00030000019 0.013084471 9.219563e-39
0.018426629 -0.00030000019 0.0034320054 9.219563e-39
0.0051800786 -0.00030000019 0.0036443861 9.219563e-39
0.0037137596 -0.00030000019 0.00070015871 9.219563e-39
0.011613004 -0.00030000019 0.0021194976 9.219563e-39
0.0060283653 -0.00030000019 0.0097233281 9.219563e-39
0.00055570633 -0.00030000019 0.0016661067 9.219563e-39
0.0039145462 -0.00030000019 0.021842128 9.219563e-39
0.0086339461 -0.00030000019 0.012870642 9.219563e-39
0.00079174223 -0.00030000019 0.018229507 9.219563e-39
0.018240744 -0.00030000019 0.0070825801 9.219563e-39
0.0081457514 -0.00030000019 0.0050406666 9.219563e-39
0.014821058 -0.00030000019 0.0093627246 9.219563e-39
0.0022068291 -0.00030000019 0.024606373 9.219563e-39
0.0020116188 -0.00030000019 0.0066084214 9.219563e-39
0.0047508944 -0.00030000019 0.0038155208 9.219563e-39
0.0012852692 -0.00030000019 0.021897627 9.219563e-39
0.014913887 -0.00030000019 0.0060590263 9.219563e-39
0.0019539602 -0.00030000019 0.01167786 9.219563e-39
0.0033190204 -0.00030000019 0.0010443232 9.219563e-39
0.013542784 -0.00030000019 0.0065744268 9.219563e-39
0.010111995 -0.00030000019 0.0039313734 9.219563e-39
0.00042557134 -0.00030000019 0.029152807 9.219563e-39
0.0018159571 -0.00030000019 0.025895467 9.219563e-39
0.0023625358 -0.00030000019 0.0053674206 9.219563e-39
0.00051479833 -0.00030000019 0.019535195 9.219563e-39
0.012188617 -0.00030000019 0.013935355 9.219563e-39
0.017524438 -0.00030000019 0.00044488031 9.219563e-39
0.0065415651 -0.00030000019 0.017115006 9.219563e-39
0.009656325 -0.00030000019 0.016697379 9.219563e-39
0.00068728894 -0.00030000019 0.022195572 9.219563e-39
0.003222567 -0.00030000019 0.021159086 9.219563e-39
0.00072989543 -0.00030000019 0.020657884 9.219563e-39
0.004145008 -0.00030000019 0.023504056 9.219563e-39
0.0075490661 -0.00030000019 0.0085563855 9.219563e-39
0.0058154068 -0.00030000019 0.0025904963 9.219563e-39
0.006628355 -0.00030000019 0.0078621795 9.219563e-39
0.0039750701 -0.00030000019 0.024295742 9.219563e-39
0.0056833411 -0.00030000019 0.013845964 9.219563e-39
0.017209217 -0.00030000019 0.0014804533 9.219563e-39
0.0032271829 -0.00030000019 0.0015874363 9.219563e-39
0.018313142 -0.00030000019 0.0038709063 9.219563e-39
0.0035807963 -0.00030000019 0.013469598 9.219563e-39
0.01381819 -0.00030000019 0.0060908133 9.219563e-39
0.0044567352 -0.00030000019 0.021974791 9.219563e-39
0.011421745 -0.00030000019 0.0047687809 9.219563e-39
0.0040926551 -0.00030000019 0.0065368004 9.219563e-39
0.018691277 -0.00030000019 0.0011686712 9.219563e-39
0.010429211 -0.00030000019 0.0043298625 9.219563e-39
0.013614607 -0.00030000019 0.00056279002 9.219563e-39
0.0027840931 -0.00030000019 0.026062731 9.219563e-39
0.0036095569 -0.00030000019 0.0040930011 9.219563e-39
0.0023682443 -0.00030000019 0.019259566 9.219563e-39
0.0059712362 -0.00030000019 0.00021109017 9.219563e-39
0.013142829 -0.00030000019 0.012845982 9.219563e-39
0.0061478131 -0.00030000019 0.013475354 9.219563e-39
0.0038169404 -0.00030000019 0.019221291 9.219563e-39
0.021403063 -0.00030000019 0.00085061754 9.219563e-39
0.015472933 -0.00030000019 0.0100988 9.219563e-39
0.0178333 -0.00030000019 0.0081835277 9.219563e-39
0.010539707 -0.00030000019 0.0062838248 9.219563e-39
0.0049130223 -0.00030000019 0.00086111197 9.219563e-39
0.012391712 -0.00030000019 0.0042748232 9.219563e-39
0.012749813 -0.00030000019 0.011458685 9.219563e-39
0.011369764 -0.00030000019 0.0075795329 9.219563e-39
0.00079330464 -0.00030000019 0.0012190273 9.219563e-39
0.0045710988 -0.00030000019 0.0054963445 9.219563e-39
0.013453045 -0.00030000019 0.010274187 9.219563e-39
0.0084295962 -0.00030000019 0.015101448 9.219563e-39
0.0089034215 -0.00030000019 0.0073552215 9.219563e-39
0.01339244 -0.00030000019 0.011900789 9.219563e-39
0.013101233 -0.00030000019 0.00019079732 9.219563e-39
0.0052825236 -0.00030000019 0.011822522 9.219563e-39
0.0058689406 -0.00030000019 0.0064051189 9.219563e-39
0.00047980051 -0.00030000019 0.016035879 9.219563e-39
0.01220966 -0.00030000019 0.010871858 9.219563e-39
0.00077926758 -0.00030000019 0.00059466681 9.219563e-39
0.0069294623 -0.00030000019 0.019470757 9.219563e-39
0.00020352112 -0.00030000019 0.0021936903 9.219563e-39
0.013666079 -0.00030000019 0.0076756789 9.219563e-39
0.0085025812 -0.00030000019 0.010781534 9.219563e-39
0.010143805 -0.00030000019 0.016674051 9.219563e-39
0.01597091 -0.00030000019 0.0089350203 9.219563e-39
0.0053432919 -0.00030000019 0.0019842435 9.219563e-39
0.0047841552 -0.00030000019 0.0022269606 9.219563e-39
0.00066859904 -0.00030000019 0.023747219 9.219563e-39
0.012016312 -0.00030000019 0.010229507 9.219563e-39
0.010379818 -0.00030000019 0.012653455 9.219563e-39
0.011951262 -0.00030000019 0.0039758929 9.219563e-39
0.015162264 -0.00030000019 0.00027461947 9.219563e-39
0.00028263684 -0.00030000019 0.023443252 9.219563e-39
0.0022492467 -0.00030000019 0.0086218072 9.219563e-39
0.015165187 -0.00030000019 0.0077031152 9.219563e-39
0.0066856043 -0.00030000019 0.014773575 9.219563e-39
0.0050081573 -0.00030000019 0.0061204466 9.219563e-39
0.016964871 -0.00030000019 0.0034561334 9.219563e-39
0.0074451985 -0.00030000019 0.019379616 9.219563e-39
0.016517039 -0.00030000019 0.0056703864 9.219563e-39
0.0096356617 -0.00030000019 0.006670645 9.219563e-39
0.014610516 -0.00030000019 0.005453188 9.219563e-39
0.0055493307 -0.00030000019 4.4005599e-05 9.219563e-39
0.0018147029 -0.00030000019 0.0076427325 9.219563e-39
0.0027984795 -0.00030000019 0.0027029477 9.219563e-39
0.02095544 -0.00030000019 0.001028145 9.219563e-39
0.017193932 -0.00030000019 0.0026684888 9.219563e-39
0.0017898828 -0.00030000019 0.005365307 9.219563e-39
0.0067109135 -0.00030000019 0.0067040017 9.219563e-39
0.00097912585 -0.00030000019 0.02844361 9.219563e-39
0.006453637 -0.00030000019 0.014043944 9.219563e-39
0.014138406 -0.00030000019 0.0074468758 9.219563e-39
0.0057119704 -0.00030000019 0.0056780451 9.219563e-39
0.013381101 -0.00030000019 0.001861622 9.219563e-39
0.005753147 -0.00030000019 0.011326189 9.219563e-39
0.013201978 -0.00030000019 0.003889543 9.219563e-39
0.0026447554 -0.00030000019 0.0057710609 9.219563e-39
0.0061792801 -0.00030000019 0.021693179 9.219563e-39
0.00267613 -0.00030000019 0.021027254 9.219563e-39
0.022603037 -0.00030000019 0.00048487689 9.219563e-39
0.018321048 -0.00030000019 0.00068713457 9.219563e-39
0.010149931 -0.00030000019 0.0047590635 9.219563e-39
0.0064291847 -0.00030000019 0.021308921 9.219563e-39
0.011531254 -0.00030000019 0.0052427249 9.219563e-39
0.010795218 -0.00030000019 0.015565969 9.219563e-39
0.0081836665 -0.00030000019 0.012902017 9.219563e-39
0.0098899202 -0.00030000019 0.015185448 9.219563e-39
0.0074649467 -0.00030000019 0.0070154699 9.219563e-39
0.0025494308 -0.00030000019 0.0012368207 9.219563e-39
0.019267734 -0.00030000019 0.0060233348 9.219563e-39
0.0085043618 -0.00030000019 0.018718502 9.219563e-39
0.0065713916 -0.00030000019 0.019973822 9.219563e-39
0.0005261667 -0.00030000019 0.0065576197 9.219563e-39
0.0049556536 -0.00030000019 0.022382069 9.219563e-39
0.00065315253 -0.00030000019 0.0042192237 9.219563e-39
0.014164758 -0.00030000019 0.0042416076 9.219563e-39
0.00094948226 -0.00030000019 0.0038241888 9.219563e-39
0.010890474 -0.00030000019 0.0027526428 9.219563e-39
0.005866806 -0.00030000019 0.0045872908 9.219563e-39
0.009843573 -0.00030000019 0.011356846 9.219563e-39
0.011873381 -0.00030000019 0.012463385 9.219563e-39
0.011625577 -0.00030000019 0.0061712787 9.219563e-39
0.014482337 -0.00030000019 0.00027681058 9.219563e-39
0.0025969869 -0.00030000019 0.0065921466 9.219563e-39
0.0073172841 -0.00030000019 0.0017533597 9.219563e-39
0.0011624162 -0.00030000019 0.0042507485 9.219563e-39
0.0069122589 -0.00030000019 0.014237165 9.219563e-39
0.004005027 -0.00030000019 0.0033968743 9.219563e-39
0.014147349 -0.00030000019 0.0051232832 9.219563e-39
0.012254135 -0.00030000019 0.01144717 9.219563e-39
0.012744674 -0.00030000019 0.012375551 9.219563e-39
0.0013369267 -0.00030000019 0.00050361379 9.219563e-39
0.005047854 -0.00030000019 0.023659103 9.219563e-39
0.0075698332 -0.00030000019 0.003678161 9.219563e-39
0.022050399 -0.00030000019 0.0033010831 9.219563e-39
0.010170243 -0.00030000019 0.0077934167 9.219563e-39
0.016753981 -0.00030000019 0.0052478323 9.219563e-39
0.0067252959 -0.00030000019 0.012466018 9.219563e-39
0.0019397812 -0.00030000019 0.020749999 9.219563e-39
0.0093358047 -0.00030000019 0.012417229 9.219563e-39
0.0021751837 -0.00030000019 0.023627814 9.219563e-39
0.012593062 -0.00030000019 0.00912055 9.219563e-39
0.0077427346 -0.00030000019 0.011777572 9.219563e-39
0.015128953 -0.00030000019 0.001843454 9.219563e-39
0.019948227 -0.00030000019 0.0028957145 9.219563e-39
0.0022345553 -0.00030000019 0.026921906 9.219563e-39
0.0049873521 -0.00030000019 0.0078069768 9.219563e-39
0.0068702484 -0.00030000019 0.0052859895 9.219563e-39
0.00094294082 -0.00030000019 0.021480218 9.219563e-39
0.021744346 -0.00030000019 2.8785193e-05 9.219563e-39
0.0029793112 -0.00030000019 0.01541777 9.219563e-39
0.016783431 -0.00030000019 0.0061219647 9.219563e-39
0.018577592 -0.00030000019 0.0046028588 9.219563e-39
0.0037137878 -0.00030000019 0.01205036 9.219563e-39
0.012928988 -0.00030000019 0.0074265162 9.219563e-39
0.0034040082 -0.00030000019 0.022624172 9.219563e-39
0.016643668 -0.00030000019 0.0088042011 9.219563e-39
0.0077639157 -0.00030000019 0.012614986 9.219563e-39
0.0048861383 -0.00030000019 0.010917949 9.219563e-39
0.0032439753 -0.00030000019 0.023117058 9.219563e-39
0.012264004 -0.00030000019 0.008133932 9.219563e-39
0.013186137 -0.00030000019 0.0085462825 9.219563e-39
0.0097531909 -0.00030000019 0.018401248 9.219563e-39
0.0057646437 -0.00030000019 0.017882988 9.219563e-39
0.0059607825 -0.00030000019 0.0031087582 9.219563e-39
0.010260992 -0.00030000019 0.011105768 9.219563e-39
0.0022950787 -0.00030000019 0.020372884 9.219563e-39
0.0008984133 -0.00030000019 0.010929122 9.219563e-39
0.0054110652 -0.00030000019 0.020061886 9.219563e-39
0.0095428936 -0.00030000019 0.0030444763 9.219563e-39
0.012199085 -0.00030000019 0.0086007286 9.219563e-39
0.0042415727 -0.00030000019 0.014924079 9.219563e-39
0.00049090461 -0.00030000019 0.024825308 9.219563e-39
0.0031299451 -0.00030000019 0.0096145421 9.219563e-39
0.0053547337 -0.00030000019 0.018857885 9.219563e-39
0.001571237 -0.00030000019 0.0084668491 9.219563e-39
0.0090198163 -0.00030000019 0.0061654351 9.219563e-39
0.0052996553 -0.00030000019 0.011342091 9.219563e-39
0.0024865058 -0.00030000019 0.0044734841 9.219563e-39
0.01003292 -0.00030000019 0.0028371369 9.219563e-39
0.00063700852 -0.00030000019 0.017771581 9.219563e-39
0.00029802113 -0.00030000019 0.013960314 9.219563e-39
0.0027752542 -0.00030000019 0.0092951218 9.219563e-39
0.0037317995 -0.00030000019 0.0061508589 9.219563e-39
0.0030541646 -0.00030000019 0.014407418 9.219563e-39
0.0086864382 -0.00030000019 0.0044297581 9.219563e-39
0.0086295698 -0.00030000019 0.019201992 9.219563e-39
0.016333364 -0.00030000019 0.0099437321 9.219563e-39
0.0084816488 -0.00030000019 0.013449688 9.219563e-39
0.0076733427 -0.00030000019 0.01723147 9.219563e-39
0.00020930283 -0.00030000019 0.022546124 9.219563e-39
0.014681259 -0.00030000019 0.0034968331 9.219563e-39
0.0013602651 -0.00030000019 0.024327138 9.219563e-39
0.011809708 -0.00030000019 0.0096991872 9.219563e-39
0.00021064925 -0.00030000019 0.028309545 9.219563e-39
0.010693545 -0.00030000019 0.00042840355 9.219563e-39
0.0066130986 -0.00030000019 0.0092323869 9.219563e-39
0.0040600826 -0.00030000019 0.020448614 9.219563e-39
0.010006909 -0.00030000019 0.011785714 9.219563e-39
0.0093292845 -0.00030000019 0.0017345103 9.219563e-39
0.0011791162 -0.00030000019 0.0053292774 9.219563e-39
0.0061788349 -0.00030000019 0.015962746 9.219563e-39
0.0090241395 -0.00030000019 0.0010725051 9.219563e-39
0.010958851 -0.00030000019 0.0073758755 9.219563e-39
0.0003144113 -0.00030000019 0.01506608 9.219563e-39
0.01113612 -0.00030000019 0.01259524 9.219563e-39
0.013868723 -0.00030000019 0.0046261223 9.219563e-39
0.0079168743 -0.00030000019 0.016546581 9.219563e-39
0.0096571594 -0.00030000019 0.01461859 9.219563e-39
0.0050122677 -0.00030000019 0.021443743 9.219563e-39
0.016141091 -0.00030000019 0.0052647972 9.219563e-39
0.01115734 -0.00030000019 0.01378167 9.219563e-39
0.007314974 -0.00030000019 0.020552669 9.219563e-39
0.0027686863 -0.00030000019 0.021539999 9.219563e-39
0.0071722534 -0.00030000019 0.0038953975 9.219563e-39
0.0043850155 -0.00030000019 0.021450747 9.219563e-39
0.0027717426 -0.00030000019 0.0016970433 9.219563e-39
0.010591074 -0.00030000019 0.0068434831 9.219563e-39
0.010660277 -0.00030000019 0.0077394452 9.219563e-39
0.0030449701 -0.00030000019 0.024758914 9.219563e-39
0.0056572384 -0.00030000019 0.023458688 9.219563e-39
0.014114521 -0.00030000019 0.0079089142 9.219563e-39
0.0097170463 -0.00030000019 0.0034880575 9.219563e-39
0.016940918 -0.00030000019 0.0039322888 9.219563e-39
0.0013006044 -0.00030000019 0.026534176 9.219563e-39
0.004761796 -0.00030000019 0.011647004 9.219563e-39
0.009649531 -0.00030000019 0.0098999171 9.219563e-39
0.019167613 -0.00030000019 5.8979808e-06 9.219563e-39
0.010888227 -0.00030000019 0.0082840268 9.219563e-39
0.0066425488 -0.00030000019 4.8893005e-05 9.219563e-39
0.0032603503 -0.00030000019 0.02612575 9.219563e-39
0.0078247031 -0.00030000019 0.020692987 9.219563e-39
0.0042171786 -0.00030000019 0.024928695 9.219563e-39
0.0093636382 -0.00030000019 0.017143225 9.219563e-39
0.0085954554 -0.00030000019 0.00043753971 9.219563e-39
0.0012737786 -0.00030000019 0.019957669 9.219563e-39
0.0049605086 -0.00030000019 0.021935629 9.219563e-39
0.0034012839 -0.00030000019 0.010501613 9.219563e-39
0.0062370044 -0.00030000019 0.0043087881 9.219563e-39
0.015495554 -0.00030000019 0.0071137142 9.219563e-39
0.01293957 -0.00030000019 0.0062147458 9.219563e-39
0.011187007 -0.00030000019 0.0069000362 9.219563e-39
0.0032537598 -0.00030000019 0.00052114285 9.219563e-39
0.0045265411 -0.00030000019 0.01369486 9.219563e-39
0.019429952 -0.00030000019 0.0024438736 9.219563e-39
0.016455531 -0.00030000019 0.0036911692 9.219563e-39
0.0087020406 -0.00030000019 0.0065822252 9.219563e-39
0.0049170181 -0.00030000019 0.01821976 9.219563e-39
0.0052947341 -0.00030000019 0.012909057 9.219563e-39
0.0033078517 -0.00030000019 0.011680516 9.219563e-39
0.0048836851 -0.00030000019 0.0048270244 9.219563e-39
0.010898323 -0.00030000019 0.0040287813 9.219563e-39
0.014793823 -0.00030000019 0.0029774487 9.219563e-39
0.0030451796 -0.00030000019 0.0022641202 9.219563e-39
0.017304732 -0.00030000019 0.0076964661 9.219563e-39
0.014036767 -0.00030000019 0.012395846 9.219563e-39
0.0037075065 -0.00030000019 0.00259069 9.219563e-39
0.0051278411 -0.00030000019 0.010127561 9.219563e-39
0.016524225 -0.00030000019 0.002260339 9.219563e-39
0.010386689 -0.00030000019 0.013875933 9.219563e-39
0.0058663124 -0.00030000019 0.015191815 9.219563e-39
0.014418437 -0.00030000019 0.0020263486 9.219563e-39
0.017919989 -0.00030000019 0.0054474515 9.219563e-39
0.024036553 -0.00030000019 0.00036157132 9.219563e-39
0.00032838146 -0.00030000019 0.024373844 9.219563e-39
0.0112257 -0.00030000019 0.0043413453 9.219563e-39
0.014838094 -0.00030000019 0.0042667203 9.219563e-39
0.0013534327 -0.00030000019 0.012350343 9.219563e-39
0.0024695047 -0.00030000019 0.0035680623 9.219563e-39
0.0062863869 -0.00030000019 0.00239255 9.219563e-39
0.0090931132 -0.00030000019 0.015279737 9.219563e-39
0.00045641008 -0.00030000019 0.021099621 9.219563e-39
0.016919347 -0.00030000019 0.0079843681 9.219563e-39
0.011482309 -0.00030000019 0.0088131642 9.219563e-39
0.00090053532 -0.00030000019 0.015129847 9.219563e-39
0.015326709 -0.00030000019 0.0025486147 9.219563e-39
0.0032812944 -0.00030000019 0.014894333 9.219563e-39
0.0056207385 -0.00030000019 0.019343182 9.219563e-39
0.0020206075 -0.00030000019 0.011043018 9.219563e-39
0.0036176462 -0.00030000019 0.017267298 9.219563e-39
0.0091424566 -0.00030000019 0.006944336 9.219563e-39
0.0060184081 -0.00030000019 0.014723908 9.219563e-39
0.01649252 -0.00030000019 0.0067873662 9.219563e-39
0.020507231 -0.00030000019 0.0008735974 9.219563e-39
0.0032956738 -0.00030000019 0.018455597 9.219563e-39
0.014891666 -0.00030000019 0.008089968 9.219563e-39
0.0057981568 -0.00030000019 0.019804846 9.219563e-39
0.0052899444 -0.00030000019 0.00050922431 9.219563e-39
0.0013946175 -0.00030000019 0.027728397 9.219563e-39
0.01184385 -0.00030000019 0.0078046555 9.219563e-39
0.0086557595 -0.00030000019 0.009219313 9.219563e-39
0.0096946405 -0.00030000019 0.017487887 9.219563e-39
0.011936891 -0.00030000019 0.0014716982 9.219563e-39
0.017765451 -0.00030000019 0.0014896328 9.219563e-39
0.02196705 -0.00030000019 0.0015068018 9.219563e-39
0.015120606 -0.00030000019 0.0055891904 9.219563e-39
0.00062039151 -0.00030000019 0.013567837 9.219563e-39
0.013889521 -0.00030000019 0.010442717 9.219563e-39
0.0035319047 -0.00030000019 0.0077349311 9.219563e-39
0.0082919803 -0.00030000019 0.0029896793 9.219563e-39
0.0017761812 -0.00030000019 0.028204953 9.219563e-39
0.0033756511 -0.00030000019 0.020498089 9.219563e-39
0.0011197963 -0.00030000019 0.014710625 9.219563e-39
0.0089801718 -0.00030000019 0.01104004 9.219563e-39
0.0084905112 -0.00030000019 0.0024033429 9.219563e-39
0.0080033801 -0.00030000019 0.010206094 9.219563e-39
0.015204756 -0.00030000019 0.0038951524 9.219563e-39
0.0030149822 -0.00030000019 0.026567327 9.219563e-39
0.0041512363 -0.00030000019 0.0076534548 9.219563e-39
0.0067559183 -0.00030000019 0.015234863 9.219563e-39
0.015355213 -0.00030000019 0.0032020968 9.219563e-39
0.0097790919 -0.00030000019 0.00094176031 9.219563e-39
0.0021692598 -0.00030000019 0.0059997062 9.219563e-39
0.014004113 -0.00030000019 0.011119616 9.219563e-39
0.0071335039 -0.00030000019 0.0088686403 9.219563e-39
0.0084716352 -0.00030000019 0.018189831 9.219563e-39
0.015060465 -0.00030000019 0.0010532187 9.219563e-39
0.01893569 -0.00030000019 0.0016538172 9.219563e-39
0.0025159821 -0.00030000019 0.017485617 9.219563e-39
0.0047183242 -0.00030000019 0.016422475 9.219563e-39
0.0027131552 -0.00030000019 0.01387324 9.219563e-39
0.012663238 -0.00030000019 0.0070731579 9.219563e-39
0.024528006 -0.00030000019 3.2192354e-05 9.219563e-39
0.011050598 -0.00030000019 0.0099042766 9.219563e-39
0.0023295607 -0.00030000019 0.0097333314 9.219563e-39
0.0071971542 -0.00030000019 0.007848273 9.219563e-39
0.0028113374 -0.00030000019 0.017118169 9.219563e-39
0.015937418 -0.00030000019 0.0096689174 9.219563e-39
0.014897367 -0.00030000019 0.011226396 9.219563e-39
0.012266251 -0.00030000019 0.0023691391 9.219563e-39
0.0052105039 -0.00030000019 0.012360945 9.219563e-39
0.0041200318 -0.00030000019 0.017829066 9.219563e-39
0.0082324538 -0.00030000019 0.0082163224 9.219563e-39
0.00168474 -0.00030000019 0.014736972 9.219563e-39
0.0066864495 -0.00030000019 0.0038198817 9.219563e-39
0.0051889415 -0.00030000019 0.005643093 9.219563e-39
0.0077446387 -0.00030000019 0.0074968813 9.219563e-39
0.0023538135 -0.00030000019 0.013541837 9.219563e-39
0.010119837 -0.00030000019 0.015665345 9.219563e-39
0.018542593 -0.00030000019 0.0076276157 9.219563e-39
0.0078809243 -0.00030000019 0.014864335 9.219563e-39
0.014412526 -0.00030000019 0.006073033 9.219563e-39
0.022304995 -0.00030000019 0.00094143359 9.219563e-39
0.018874321 -0.00030000019 0.0068194177 9.219563e-39
0.004778787 -0.00030000019 0.0066559706 9.219563e-39
0.0071588843 -0.00030000019 0.017376635 9.219563e-39
0.019689664 -0.00030000019 0.0034992895 9.219563e-39
0.0077538472 -0.00030000019 0.0031416048 9.219563e-39
0.018656457 -0.00030000019 0.002033018 9.219563e-39
0.017152755 -0.00030000019 0.0058461577 9.219563e-39
0.0017167906 -0.00030000019 0.021602236 9.219563e-39
0.0016507513 -0.00030000019 0.022712374 9.219563e-39
0.012638011 -0.00030000019 0.010550691 9.219563e-39
0.010416438 -0.00030000019 0.009707408 9.219563e-39
0.0068112649 -0.00030000019 0.0023973749 9.219563e-39
0.013183518 -0.00030000019 0.0091283442 9.219563e-39
0.013641386 -0.00030000019 0.01265285 9.219563e-39
0.0024732593 -0.00030000019 0.0162514 9.219563e-39
0.010636086 -0.00030000019 0.0023211266 9.219563e-39
0.015068999 -0.00030000019 0.0088847633 9.219563e-39
0.007334155 -0.00030000019 0.015031452 9.219563e-39
0.019619731 -0.00030000019 0.0014193513 9.219563e-39
0.0067852018 -0.00030000019 0.016213393 9.219563e-39
0.0054554464 -0.00030000019 0.016925218 9.219563e-39
0.01771743 -0.00030000019 0.0032840895 9.219563e-39
0.014068941 -0.00030000019 0.012929383 9.219563e-39
0.0011940094 -0.00030000019 0.010236331 9.219563e-39
0.0023211234 -0.00030000019 0.0230914 9.219563e-39
0.0072260839 -0.00030000019 0.0010561347 9.219563e-39
0.0011145824 -0.00030000019 0.0082075549 9.219563e-39
0.0035372071 -0.00030000019 0.0049228114 9.219563e-39
0.0042992136 -0.00030000019 0.0041924994 9.219563e-39
0.020131344 -0.00030000019 0.0046875146 9.219563e-39
0.012087573 -0.00030000019 0.0092646787 9.219563e-39
0.0076698796 -0.00030000019 0.018600894 9.219563e-39
0.004790463 -0.00030000019 0.014535018 9.219563e-39
0.0034703189 -0.00030000019 0.0032900486 9.219563e-39
0.0072447592 -0.00030000019 0.01795302 9.219563e-39
0.023397153 -0.00030000019 0.0014529186 9.219563e-39
0.0019177088 -0.00030000019 0.019464936 9.219563e-39
0.0059656287 -0.00030000019 0.021099929 9.219563e-39
0.0067653437 -0.00030000019 0.013065957 9.219563e-39
0.0063940128 -0.00030000019 0.02067822 9.219563e-39
0.001135098 -0.00030000019 0.0062747556 9.219563e-39
0.017633058 -0.00030000019 0.0059224907 9.219563e-39
0.0033050848 -0.00030000019 0.019108515 9.219563e-39
0.010092803 -0.00030000019 0.0016536418 9.219563e-39
0.0078480141 -0.00030000019 0.00042572492 9.219563e-39
0.013121049 -0.00030000019 0.0029639301 9.219563e-39
0.00059143687 -0.00030000019 0.02714722 9.219563e-39
0.0074452176 -0.00030000019 0.0054859226 9.219563e-39
0.0026908549 -0.00030000019 0.010043031 9.219563e-39
0.00083046744 -0.00030000019 0.025137704 9.219563e-39
0.015472841 -0.00030000019 0.0014704964 9.219563e-39
0.0017113821 -0.00030000019 0.0025543608 9.219563e-39
0.012253243 -0.00030000019 0.012029212 9.219563e-39
0.0012901198 -0.00030000019 0.019173531 9.219563e-39
0.0035143783 -0.00030000019 0.0167981 9.219563e-39
0.0042705177 -0.00030000019 0.014185945 9.219563e-39
0.01565792 -0.00030000019 0.0043956609 9.219563e-39
0.00099618512 -0.00030000019 0.0019151358 9.219563e-39
0.0057230731 -0.00030000019 0.00075568125 9.219563e-39
0.010124955 -0.00030000019 0.014670956 9.219563e-39
0.019818719 -0.00030000019 0.0053716442 9.219563e-39
0.013687687 -0.00030000019 0.0096764248 9.219563e-39
0.00040073265 -0.00030000019 0.017313672 9.219563e-39
0.0047732182 -0.00030000019 0.012215612 9.219563e-39
0.016811647 -0.00030000019 0.0012365736 9.219563e-39
0.021337532 -0.00030000019 0.0034193648 9.219563e-39
0.0038121755 -0.00030000019 0.010812531 9.219563e-39
0.0027289283 -0.00030000019 0.0049733627 9.219563e-39
0.0097145578 -0.00030000019 0.0093720779 9.219563e-39
0.00079993583 -0.00030000019 0.003054552 9.219563e-39
0.0062398305 -0.00030000019 0.0034720146 9.219563e-39
0.0003622786 -0.00030000019 0.013168013 9.219563e-39
0.010120918 -0.00030000019 0.01712344 9.219563e-39
0.002387465 -0.00030000019 0.018558921 9.219563e-39
0.011410026 -0.00030000019 0.0029317592 9.219563e-39
0.014009335 -0.00030000019 0.0066550309 9.219563e-39
0.0045897285 -0.00030000019 0.017526049 9.219563e-39
0.0078184856 -0.00030000019 0.0065315845 9.219563e-39
0.0014781895 -0.00030000019 0.011485811 9.219563e-39
0.0087066572 -0.00030000019 0.0052975039 9.219563e-39
0.0058761262 -0.00030000019 0.011836998 9.219563e-39
0.0080551319 -0.00030000019 0.00089126267 9.219563e-39
0.0048679598 -0.00030000019 0.0085853394 9.219563e-39
0.0086786123 -0.00030000019 0.0033807845 9.219563e-39
0.0043028449 -0.00030000019 0.020026257 9.219563e-39
0.010545567 -0.00030000019 0.014292824 9.219563e-39
0.0021721618 -0.00030000019 0.014375599 9.219563e-39
0.0078718448 -0.00030000019 0.0094373999 9.219563e-39
0.0038909183 -0.00030000019 0.0088199405 9.219563e-39
0.005833541 -0.00030000019 0.0078850305 9.219563e-39
0.019172639 -0.00030000019 0.0011207885 9.219563e-39
0.010694625 -0.00030000019 0.0047419029 9.219563e-39
0.01844872 -0.00030000019 0.0051643816 9.219563e-39
0.0028484124 -0.00030000019 0.010631206 9.219563e-39
0.0088754483 -0.00030000019 0.010402626 9.219563e-39
0.015801629 -0.00030000019 0.0022880551 9.219563e-39
0.0026482854 -0.00030000019 0.019857066 9.219563e-39
0.0087768883 -0.00030000019 0.012011617 9.219563e-39
0.0032661485 -0.00030000019 0.025277797 9.219563e-39
0.012185325 -0.00030000019 0.0073520406 9.219563e-39
0.0022554176 -0.00030000019 0.01688779 9.219563e-39
0.0082759783 -0.00030000019 0.0068463697 9.219563e-39
0.0066161295 -0.00030000019 0.0048860069 9.219563e-39
0.017195623 -0.00030000019 0.00094266748 9.219563e-39
0.0091120191 -0.00030000019 0.01325576 9.219563e-39
0.0049498016 -0.00030000019 0.020202862 9.219563e-39
0.015292455 -0.00030000019 0.010619591 9.219563e-39
0.0072383098 -0.00030000019 0.011766802 9.219563e-39
0.0083578695 -0.00030000019 0.011581159 9.219563e-39
0.0015014769 -0.00030000019 0.012894018 9.219563e-39
0.0087995082 -0.00030000019 0.017043551 9.219563e-39
0.015447197 -0.00030000019 0.0095385518 9.219563e-39
0.012401445 -0.00030000019 0.0060027889 9.219563e-39
0.00085532101 -0.00030000019 0.024222989 9.219563e-39
0.0040750494 -0.00030000019 0.0082387151 9.219563e-39
0.0015525989 -0.00030000019 0.015176077 9.219563e-39
0.018557519 -0.00030000019 0.0060214535 9.219563e-39
0.013793886 -0.00030000019 0.0038768358 9.219563e-39
0.013548944 -0.00030000019 0.0011355375 9.219563e-39
0.012546323 -0.00030000019 0.0054678605 9.219563e-39
0.0015964031 -0.00030000019 0.017596308 9.219563e-39
0.013007207 -0.00030000019 0.0012500342 9.219563e-39
0.0011433942 -0.00030000019 0.018668042 9.219563e-39
0.0057994816 -0.00030000019 0.022215078 9.219563e-39
0.00097771327 -0.00030000019 0.013141382 9.219563e-39
0.0064104637 -0.00030000019 0.0072159194 9.219563e-39
0.0083775651 -0.00030000019 0.017430194 9.219563e-39
0.011941741 -0.00030000019 0.0048244493 9.219563e-39
0.011424768 -0.00030000019 0.001577128 9.219563e-39
0.012508939 -0.00030000019 0.00067422149 9.219563e-39
0.0024577931 -0.00030000019 0.0030794437 9.219563e-39
0.017214458 -0.00030000019 0.0021948612 9.219563e-39
0.019071737 -0.00030000019 0.0055967835 9.219563e-39
0.014583845 -0.00030000019 0.0088773137 9.219563e-39
0.016655171 -0.00030000019 0.00071424659 9.219563e-39
0.010956818 -0.00030000019 0.010699677 9.219563e-39
0.003026922 -0.00030000019 0.016711509 9.219563e-39
0.0018483141 -0.00030000019 0.015599722 9.219563e-39
0.017866669 -0.00030000019 0.00084595842 9.219563e-39
0.0032610986 -0.00030000019 0.020041605 9.219563e-39
0.001062408 -0.00030000019 0.027007934 9.219563e-39
0.011238168 -0.00030000019 0.0036866409 9.219563e-39
0.0035543013 -0.00030000019 0.0084215477 9.219563e-39
0.0078906361 -0.00030000019 0.0192785 9.219563e-39
0.0040762089 -0.00030000019 0.022871174 9.219563e-39
0.018927623 -0.00030000019 0.0031299777 9.219563e-39
0.0068616429 -0.00030000019 0.011350378 9.219563e-39
0.015805164 -0.00030000019 0.010953242 9.219563e-39
0.0015793182 -0.00030000019 0.006159483 9.219563e-39
0.0055063586 -0.00030000019 0.0061040176 9.219563e-39
0.013292021 -0.00030000019 0.0044598021 9.219563e-39
0.0018699148 -0.00030000019 0.0097976411 9.219563e-39
0.0029371169 -0.00030000019 0.013047411 9.219563e-39
0.018992422 -0.00030000019 0.0038037894 9.219563e-39
0.01068414 -0.00030000019 0.0092242202 9.219563e-39
0.0020727238 -0.00030000019 0.0072365007 9.219563e-39
0.0038141645 -0.00030000019 0.0056506405 9.219563e-39
0.014538364 -0.00030000019 0.0069171661 9.219563e-39
0.0021731467 -0.00030000019 0.01019581 9.219563e-39
0.020756727 -0.00030000019 0.0014445597 9.219563e-39
0.0042833337 -0.00030000019 0.0019563907 9.219563e-39
0.0011864161 -0.00030000019 0.017893953 9.219563e-39
0.0046206145 -0.00030000019 0.019584011 9.219563e-39
0.009223883 -0.00030000019 0.014447655 9.219563e-39
0.016808113 -0.00030000019 0.0096866759 9.219563e-39
0.0059869736 -0.00030000019 0.0091402503 9.219563e-39
0.012203231 -0.00030000019 0.0019212421 9.219563e-39
0.0045947037 -0.00030000019 0.018621143 9.219563e-39
0.010153291 -0.00030000019 0.0090006907 9.219563e-39
0.0057466798 -0.00030000019 0.00360697 9.219563e-39
0.0080200238 -0.00030000019 0.0088429395 9.219563e-39
0.006001357 -0.00030000019 0.017083483 9.219563e-39
0.01106583 -0.00030000019 0.005276212 9.219563e-39
0.010703539 -0.00030000019 0.011462005 9.219563e-39
0.004111961 -0.00030000019 0.0131657 9.219563e-39
0.0078225518 -0.00030000019 0.013968753 9.219563e-39
0.0049124248 -0.00030000019 0.0032165374 9.219563e-39
0.0017075089 -0.00030000019 0.020188525 9.219563e-39
0.016012061 -0.00030000019 0.003906989 9.219563e-39
0.0045497888 -0.00030000019 0.023239575 9.219563e-39
0.0054356726 -0.00030000019 0.009401802 9.219563e-39
0.018602338 -0.00030000019 0.0027158598 9.219563e-39
0.004129516 -0.00030000019 0.0095960954 9.219563e-39
0.016212555 -0.00030000019 0.001860347 9.219563e-39
0.013118947 -0.00030000019 0.010684434 9.219563e-39
0.011712096 -0.00030000019 0.015961096 9.219563e-39
0.013867123 -0.00030000019 0.0092098648 9.219563e-39
0.0042836522 -0.00030000019 0.0048975768 9.219563e-39
0.017125987 -0.00030000019 0.0091285808 9.219563e-39
0.0069504352 -0.00030000019 0.0097832344 9.219563e-39
0.010728803 -0.00030000019 0.0009056931 9.219563e-39
0.0096089588 -0.00030000019 0.0045057349 9.219563e-39
0.0058994596 -0.00030000019 0.0084897978 9.219563e-39
0.002737588 -0.00030000019 0.022784028 9.219563e-39
0.014102601 -0.00030000019 0.00084784318 9.219563e-39
0.015392954 -0.00030000019 0.0064536715 9.219563e-39
0.021295231 -0.00030000019 0.0002243554 9.219563e-39
0.001222367 -0.00030000019 0.020463308 9.219563e-39
0.0023914156 -0.00030000019 0.025274659 9.219563e-39
0.0032258956 -0.00030000019 0.0057143755 9.219563e-39
0.0024524052 -0.00030000019 0.026377968 9.219563e-39
0.0031354709 -0.00030000019 0.012648017 9.219563e-39
0.00054211851 -0.00030000019 0.0035491814 9.219563e-39
0.005857728 -0.00030000019 0.0017566128 9.219563e-39
0.01002875 -0.00030000019 0.010432309 9.219563e-39
0.00044444433 -0.00030000019 0.018626222 9.219563e-39
0.011559841 -0.00030000019 0.012048169 9.219563e-39
0.010765116 -0.00030000019 0.010277587 9.219563e-39
0.0093150493 -0.00030000019 0.011720565 9.219563e-39
0.010394078 -0.00030000019 0.015128351 9.219563e-39
0.0018019249 -0.00030000019 0.0125245 9.219563e-39
0.0073467302 -0.00030000019 0.013586749 9.219563e-39
0.0066165654 -0.00030000019 0.010530777 9.219563e-39
0.014471599 -0.00030000019 0.0084367227 9.219563e-39
0.0091652889 -0.00030000019 0.016730042 9.219563e-39
0.0094767697 -0.00030000019 0.0060344827 9.219563e-39
0.0025650105 -0.00030000019 0.022109352 9.219563e-39
0.015778871 -0.00030000019 0.0028858818 9.219563e-39
0.0012770254 -0.00030000019 0.013641659 9.219563e-39
0.0088485517 -0.00030000019 0.014786547 9.219563e-39
0.022087412 -0.00030000019 0.0019568438 9.219563e-39
0.0057927193 -0.00030000019 0.0227376 9.219563e-39
0.0026840251 -0.00030000019 0.0071563306 9.219563e-39
0.0026972522 -0.00030000019 0.015794378 9.219563e-39
0.0037400876 -0.00030000019 0.010173563 9.219563e-39
0.002708293 -0.00030000019 0.02345993 9.219563e-39
0.019787373 -0.00030000019 0.0020348118 9.219563e-39
0.0090304781 -0.00030000019 0.0081681721 9.219563e-39
0.0089054005 -0.00030000019 0.018471535 9.219563e-39
0.0091407159 -0.00030000019 0.0092677157 9.219563e-39
0.0069417814 -0.00030000019 0.00066301372 9.219563e-39
0.0037481729 -0.00030000019 0.024929944 9.219563e-39
0.018004704 -0.00030000019 0.001942777 9.219563e-39
0.0144615 -0.00030000019 0.010767845 9.219563e-39
0.0018549928 -0.00030000019 0.026479328 9.219563e-39
0.0038298231 -0.00030000019 0.02125822 9.219563e-39
0.015512299 -0.00030000019 0.0087773437 9.219563e-39
0.0042691175 -0.00030000019 0.0070837094 9.219563e-39
0.015958011 -0.00030000019 0.00010885225 9.219563e-39
0.020230481 -0.00030000019 0.0013233059 9.219563e-39
0.0050215786 -0.00030000019 0.015032966 9.219563e-39
0.0053136288 -0.00030000019 0.0073814122 9.219563e-39
0.0003834629 -0.00030000019 0.0074245171 9.219563e-39
0.0061779642 -0.00030000019 0.012896799 9.219563e-39
0.0093989642 -0.00030000019 0.002584371 9.219563e-39
0.0043788678 -0.00030000019 0.011900014 9.219563e-39
0.013306773 -0.00030000019 0.0058147172 9.219563e-39
0.016283261 -0.00030000019 0.0062241331 9.219563e-39
0.015394788 -0.00030000019 0.0051446147 9.219563e-39
0.0094028935 -0.00030000019 0.013694773 9.219563e-39
0.010854456 -0.00030000019 0.012993719 9.219563e-39
0.01484314 -0.00030000019 0.01043054 9.219563e-39
0.0002820144 -0.00030000019 0.029692836 9.219563e-39
0.0082188109 -0.00030000019 0.0035546762 9.219563e-39
0.017278606 -0.00030000019 0.0048862719 9.219563e-39
0.0031529218 -0.00030000019 0.024171703 9.219563e-39
0.0086213816 -0.00030000019 0.0077274293 9.219563e-39
0.00086904073 -0.00030000019 0.0091228671 9.219563e-39
0.008261201 -0.00030000019 0.01451817 9.219563e-39
0.014009307 -0.00030000019 0.0086471867 9.219563e-39
0.0041676974 -0.00030000019 0.022386372 9.219563e-39
0.0043714689 -0.00030000019 0.0088845538 9.219563e-39
0.001563667 -0.00030000019 0.0089266896 9.219563e-39
0.012370159 -0.00030000019 0.014693083 9.219563e-39
0.0036269503 -0.00030000019 0.017781021 9.219563e-39
0.0011250229 -0.00030000019 0.016618505 9.219563e-39
0.023105081 -0.00030000019 0.0010305233 9.219563e-39
0.0054915491 -0.00030000019 0.014276691 9.219563e-39
0.0021319888 -0.00030000019 0.019914633 9.219563e-39
0.014189824 -0.00030000019 0.011726806 9.219563e-39
0.0022146457 -0.00030000019 0.00064209569 9.219563e-39
0.009829565 -0.00030000019 0.0024142915 9.219563e-39
0.0014867107 -0.00030000019 0.0034481261 9.219563e-39
0.0018003507 -0.00030000019 0.016928341 9.219563e-39
0.0031618308 -0.00030000019 0.017481798 9.219563e-39
0.022577025 -0.00030000019 0.0014518168 9.219563e-39
0.0053975526 -0.00030000019 0.0014861044 9.219563e-39
0.0077239098 -0.00030000019 0.004651831 9.219563e-39
0.0013559079 -0.00030000019 0.0049063037 9.219563e-39
0.0060685314 -0.00030000019 0.019382095 9.219563e-39
0.0010357796 -0.00030000019 0.0158314 9.219563e-39
0.0067953542 -0.00030000019 0.02169035 9.219563e-39
0.0091514532 -0.00030000019 0.0043908749 9.219563e-39
0.012994398 -0.00030000019 0.01012196 9.219563e-39
0.0082339328 -0.00030000019 0.02028018 9.219563e-39
0.01631208 -0.00030000019 0.0093345698 9.219563e-39
0.0050975271 -0.00030000019 0.020728935 9.219563e-39
0.004421345 -0.00030000019 0.00067642453 9.219563e-39
0.01646892 -0.00030000019 0.0042046984 9.219563e-39
0.020753883 -0.00030000019 0.0034751322 9.219563e-39
0.00039075239 -0.00030000019 0.0054254364 9.219563e-39
0.00029428542 -0.00030000019 0.011012887 9.219563e-39
0.013911656 -0.00030000019 0.0020078237 9.219563e-39
0.0017098843 -0.00030000019 0.01609849 9.219563e-39
0.0042984593 -0.00030000019 0.010375312 9.219563e-39
0.0096127344 -0.00030000019 0.010696311 9.219563e-39
0.012051743 -0.00030000019 0.0064759445 9.219563e-39
0.0091254553 -0.00030000019 0.017655341 9.219563e-39
0.0051660365 -0.00030000019 0.017371055 9.219563e-39
0.0094115073 -0.00030000019 0.0038636243 9.219563e-39
0.017481737 -0.00030000019 0.0063748956 9.219563e-39
0.0049510044 -0.00030000019 0.019207027 9.219563e-39
0.002830524 -0.00030000019 0.0203788 9.219563e-39
0.011026096 -0.00030000019 0.0087803174 9.219563e-39
0.0074330377 -0.00030000019 0.0093463259 9.219563e-39
0.0072173439 -0.00030000019 0.018800756 9.219563e-39
0.013229881 -0.00030000019 0.013688239 9.219563e-39
0.0049789916 -0.00030000019 0.024192756 9.219563e-39
0.0023759927 -0.00030000019 0.0024493195 9.219563e-39
0.0082764644 -0.00030000019 0.015833164 9.219563e-39
0.0077466373 -0.00030000019 0.0060501019 9.219563e-39
0.0011727589 -0.00030000019 0.020911895 9.219563e-39
0.0097929752 -0.00030000019 0.013331665 9.219563e-39
0.0063098492 -0.00030000019 0.00079360401 9.219563e-39
0.013783381 -0.00030000019 0.0055524856 9.219563e-39
0.019146131 -0.00030000019 0.0046670684 9.219563e-39
0.014829261 -0.00030000019 0.011777812 9.219563e-39
0.016258745 -0.00030000019 0.0077299234 9.219563e-39
0.0018368727 -0.00030000019 0.014046198 9.219563e-39
0.0016230991 -0.00030000019 0.010682188 9.219563e-39
0.02099175 -0.00030000019 0.0043086037 9.219563e-39
0.0020900294 -0.00030000019 0.021964911 9.219563e-39
0.003555001 -0.00030000019 0.01563132 9.219563e-39
0.0084087998 -0.00030000019 0.001272529 9.219563e-39
0.015958579 -0.00030000019 0.007172117 9.219563e-39
0.001677311 -0.00030000019 0.013338679 9.219563e-39
0.011237957 -0.00030000019 0.0094126137 9.219563e-39
0.019471072 -0.00030000019 0.0050506224 9.219563e-39
0.0029654736 -0.00030000019 0.0077845631 9.219563e-39
0.020608682 -0.00030000019 0.0024525304 9.219563e-39
0.019804889 -0.00030000019 0.00082020496 9.219563e-39
0.011446169 -0.00030000019 0.00108239 9.219563e-39
0.0080194632 -0.00030000019 0.012214166 9.219563e-39
0.016716098 -0.00030000019 0.0046328069 9.219563e-39
0.0041593984 -0.00030000019 0.016331514 9.219563e-39
0.012558978 -0.00030000019 0.0012050662 9.219563e-39
0.0095010875 -0.00030000019 0.012970611 9.219563e-39
0.010252152 -0.00030000019 0.00019003851 9.219563e-39
0.00070386386 -0.00030000019 0.025933677 9.219563e-39
0.0024746829 -0.00030000019 0.014878821 9.219563e-39
0.0017019013 -0.00030000019 0.025340339 9.219563e-39
0.0022231655 -0.00030000019 0.0018508176 9.219563e-39
0.0058720727 -0.00030000019 0.018514035 9.219563e-39
0.0023787438 -0.00030000019 0.007740431 9.219563e-39
0.010511478 -0.00030000019 0.0031361545 9.219563e-39
0.0098384824 -0.00030000019 0.0073861694 9.219563e-39
0.013543344 -0.00030000019 0.013193077 9.219563e-39
0.021218577 -0.00030000019 0.022105524 9.219563e-39
0.012404941 -0.00030000019 0.018783836 9.219563e-39
0.0056904643 -0.00030000019 0.029637137 9.219563e-39
0.019851202 -0.00030000019 0.025464587 9.219563e-39
0.018070227 -0.00030000019 0.020543594 9.219563e-39
0.0037592275 -0.00030000019 0.029904163 9.219563e-39
0.020147601 -0.00030000019 0.018677179 9.219563e-39
0.021418395 -0.00030000019 0.018570514 9.219563e-39
0.011090061 -0.00030000019 0.017977556 9.219563e-39
0.020143833 -0.00030000019 0.010774449 9.219563e-39
0.013941575 -0.00030000019 0.029565085 9.219563e-39
0.014566391 -0.00030000019 0.018995998 9.219563e-39
0.020617919 -0.00030000019 0.007969806 9.219563e-39
0.015004585 -0.00030000019 0.016258992 9.219563e-39
0.01479049 -0.00030000019 0.026359189 9.219563e-39
0.0032554939 -0.00030000019 0.027585667 9.219563e-39
0.0026426786 -0.00030000019 0.027595539 9.219563e-39
0.012924287 -0.00030000019 0.015781855 9.219563e-39
0.017742714 -0.00030000019 0.02872815 9.219563e-39
0.010426564 -0.00030000019 0.026994124 9.219563e-39
0.019835329 -0.00030000019 0.015811002 9.219563e-39
0.023502439 -0.00030000019 0.016294759 9.219563e-39
0.017372089 -0.00030000019 0.019368257 9.219563e-39
0.014237138 -0.00030000019 0.021977134 9.219563e-39
0.013100805 -0.00030000019 0.023685765 9.219563e-39
0.0088031525 -0.00030000019 0.024975769 9.219563e-39
0.018550485 -0.00030000019 0.02809687 9.219563e-39
0.010783973 -0.00030000019 0.024011653 9.219563e-39
0.017312111 -0.00030000019 0.022407137 9.219563e-39
0.010185333 -0.00030000019 0.027403096 9.219563e-39
0.0089734392 -0.00030000019 0.029523071 9.219563e-39
0.023321111 -0.00030000019 0.0083131948 9.219563e-39
0.020232586 -0.00030000019 0.012357358 9.219563e-39
0.019930074 -0.00030000019 0.016740233 9.219563e-39
0.021266174 -0.00030000019 0.023785679 9.219563e-39
0.017560624 -0.00030000019 0.01879767 9.219563e-39
0.011480298 -0.00030000019 0.022613654 9.219563e-39
0.012715219 -0.00030000019 0.02454911 9.219563e-39
0.0043006944 -0.00030000019 0.026725622 9.219563e-39
0.023541721 -0.00030000019 0.010442206 9.219563e-39
0.015029693 -0.00030000019 0.01878774 9.219563e-39
0.02028296 -0.00030000019 0.0095544364 9.219563e-39
0.012184704 -0.00030000019 0.019195348 9.219563e-39
0.020773882 -0.00030000019 0.024897425 9.219563e-39
0.0034355919 -0.00030000019 0.026986405 9.219563e-39
0.019481175 -0.00030000019 0.019979052 9.219563e-39
0.022069253 -0.00030000019 0.0301739 9.219563e-39
0.018903745 -0.00030000019 0.030125266 9.219563e-39
0.011740899 -0.00030000019 0.02731153 9.219563e-39
0.020039605 -0.00030000019 0.0090348767 9.219563e-39
0.018387677 -0.00030000019 0.026334558 9.219563e-39
0.015238918 -0.00030000019 0.019813124 9.219563e-39
0.024773099 -0.00030000019 0.010882099 9.219563e-39
0.018766886 -0.00030000019 0.021426864 9.219563e-39
0.023731241 -0.00030000019 0.01095391 9.219563e-39
0.017529191 -0.00030000019 0.0096926671 9.219563e-39
0.02150194 -0.00030000019 0.0052978559 9.219563e-39
0.014984819 -0.00030000019 0.022640383 9.219563e-39
0.024654984 -0.00030000019 0.019263912 9.219563e-39
0.012265141 -0.00030000019 0.029802615 9.219563e-39
0.0075532314 -0.00030000019 0.027137658 9.219563e-39
0.022063259 -0.00030000019 0.024248047 9.219563e-39
0.014163076 -0.00030000019 0.025885424 9.219563e-39
0.020684747 -0.00030000019 0.02937449 9.219563e-39
0.016108131 -0.00030000019 0.026513165 9.219563e-39
0.0022236886 -0.00030000019 0.028415086 9.219563e-39
0.0042978781 -0.00030000019 0.02908463 9.219563e-39
0.01891098 -0.00030000019 0.025174838 9.219563e-39
0.012212134 -0.00030000019 0.028627632 9.219563e-39
0.0090259388 -0.00030000019 0.026855029 9.219563e-39
0.012406907 -0.00030000019 0.019992787 9.219563e-39
0.021464072 -0.00030000019 0.012793623 9.219563e-39
0.017304473 -0.00030000019 0.010668935 9.219563e-39
0.018681319 -0.00030000019 0.013201851 9.219563e-39
0.024093155 -0.00030000019 0.01767366 9.219563e-39
