# .PCD v0.7 - Point Cloud Data file format
VERSION 0.7
FIELDS x y z rgb
SIZE 4 4 4 4
TYPE F F F F
COUNT 1 1 1 1
WIDTH 932
HEIGHT 1
VIEWPOINT 0 0 0 1 0 0 0
POINTS 932
DATA ascii
-0.014733448 -0.0089523382 0.064753145 9.219563e-39
-0.014697401 -0.0090080006 0.080721632 9.219563e-39
-0.014303461 -0.0096163144 0.084918059 9.219563e-39
-0.014428834 -0.0094227158 0.081447423 9.219563e-39
-0.014708727 -0.0089905122 0.075245962 9.219563e-39
-0.014732645 -0.0089535788 0.073654003 9.219563e-39
-0.014559266 -0.0092213051 0.079815522 9.219563e-39
-0.014503302 -0.0093077244 0.077869199 9.219563e-39
-0.014737339 -0.0089463294 0.062973246 9.219563e-39
-0.014677111 -0.0090393322 0.077407517 9.219563e-39
-0.014555657 -0.0092268782 0.079129361 9.219563e-39
-0.014840383 -0.008787211 0.065745853 9.219563e-39
-0.014639437 -0.0090975072 0.084158197 9.219563e-39
-0.014651303 -0.0090791844 0.075781733 9.219563e-39
-0.014714368 -0.0089818016 0.068576097 9.219563e-39
-0.014559319 -0.0092212232 0.07853362 9.219563e-39
-0.014839198 -0.0087890401 0.070022501 9.219563e-39
-0.01456023 -0.0092198169 0.069606453 9.219563e-39
-0.01472282 -0.0089687491 0.062070906 9.219563e-39
-0.014339144 -0.0095612127 0.080464683 9.219563e-39
-0.01476152 -0.0089089898 0.072222464 9.219563e-39
-0.014763953 -0.0089052329 0.079429552 9.219563e-39
-0.015439921 -0.0076935748 0.071913101 9.219563e-39
-0.015485621 -0.0076095331 0.077285491 9.219563e-39
-0.014926165 -0.008638354 0.057818428 9.219563e-39
-0.015244408 -0.0080531174 0.066548541 9.219563e-39
-0.015386444 -0.0077919187 0.0765687 9.219563e-39
-0.01546475 -0.0076479148 0.073029198 9.219563e-39
-0.01537949 -0.0078047044 0.066107832 9.219563e-39
-0.015414276 -0.0077407346 0.055766378 9.219563e-39
-0.015466779 -0.0076441825 0.076009966 9.219563e-39
-0.015020733 -0.0084644482 0.056902822 9.219563e-39
-0.015176659 -0.0081777051 0.056456361 9.219563e-39
-0.015273793 -0.0079990784 0.064012185 9.219563e-39
-0.015044959 -0.0084198974 0.060112961 9.219563e-39
-0.015195328 -0.0081433738 0.058962975 9.219563e-39
-0.015331921 -0.007892184 0.058237303 9.219563e-39
-0.015375002 -0.0078129582 0.060518075 9.219563e-39
-0.015243959 -0.0080539435 0.064526245 9.219563e-39
-0.015106413 -0.0083068851 0.062984169 9.219563e-39
-0.015441565 -0.0076905526 0.081828825 9.219563e-39
-0.015478447 -0.0076227272 0.080374196 9.219563e-39
-0.015157682 -0.0082126036 0.068174176 9.219563e-39
-0.015469762 -0.007638698 0.064781584 9.219563e-39
-0.015020857 -0.0084642209 0.055697106 9.219563e-39
-0.015500717 -0.0075817737 0.062295046 9.219563e-39
-0.014958007 -0.008579799 0.056190353 9.219563e-39
-0.015457571 -0.0076611177 0.074800536 9.219563e-39
-0.015182444 -0.0081670666 0.067359269 9.219563e-39
-0.015386363 -0.0077920668 0.068274863 9.219563e-39
-0.015455419 -0.0076650735 0.07108736 9.219563e-39
-0.015047389 -0.0084154289 0.061430894 9.219563e-39
-0.015012973 -0.0084787179 0.058351502 9.219563e-39
-0.015311615 -0.0079295253 0.074323885 9.219563e-39
-0.015444492 -0.0076851691 0.069898926 9.219563e-39
-0.015415468 -0.0077385423 0.055270258 9.219563e-39
-0.015497515 -0.007587662 0.057435315 9.219563e-39
-0.015292475 -0.0079647237 0.065344475 9.219563e-39
-0.01530159 -0.0079479618 0.068986699 9.219563e-39
-0.015449456 -0.0076760398 0.063636288 9.219563e-39
-0.015230893 -0.0080779698 0.057266966 9.219563e-39
-0.015453672 -0.007668287 0.082929537 9.219563e-39
-0.015239748 -0.0080616856 0.062202755 9.219563e-39
-0.015411733 -0.0077454117 0.056719292 9.219563e-39
-0.01544049 -0.0076925284 0.059938144 9.219563e-39
-0.015174354 -0.0081819436 0.059599493 9.219563e-39
-0.015493644 -0.0075947787 0.058635004 9.219563e-39
-0.015459126 -0.0076582571 0.061421461 9.219563e-39
-0.015147478 -0.008231367 0.055225488 9.219563e-39
-0.015434029 -0.0077044107 0.081081994 9.219563e-39
-0.015460188 -0.0076563056 0.067177393 9.219563e-39
-0.014547464 -0.0092395302 0.061528724 9.219563e-39
-0.01422203 -0.0097420579 0.071038403 9.219563e-39
-0.014471782 -0.0093563953 0.068080723 9.219563e-39
-0.014557148 -0.0092245769 0.058105059 9.219563e-39
-0.014263806 -0.009677548 0.056660879 9.219563e-39
-0.014498043 -0.0093158456 0.065427512 9.219563e-39
-0.014511158 -0.0092955939 0.056184944 9.219563e-39
-0.014315184 -0.0095982123 0.071568228 9.219563e-39
-0.014544102 -0.0092447205 0.064095229 9.219563e-39
-0.014400413 -0.0094666025 0.062629826 9.219563e-39
-0.014276832 -0.0096574333 0.074144222 9.219563e-39
-0.014709286 -0.008989648 0.058559507 9.219563e-39
-0.014391435 -0.0094804671 0.073458366 9.219563e-39
-0.014237594 -0.0097180251 0.064489543 9.219563e-39
-0.014316494 -0.0095961895 0.077438623 9.219563e-39
-0.014405931 -0.0094580818 0.066004276 9.219563e-39
-0.01431928 -0.0095918868 0.074661486 9.219563e-39
-0.014312308 -0.0096026529 0.07540793 9.219563e-39
-0.014306233 -0.0096120331 0.072609507 9.219563e-39
-0.014463902 -0.0093685659 0.059540723 9.219563e-39
-0.014167911 -0.0098256264 0.082281403 9.219563e-39
-0.014394509 -0.0094757201 0.066885613 9.219563e-39
-0.014180837 -0.0098056672 0.056001462 9.219563e-39
-0.014262673 -0.0096792988 0.067448109 9.219563e-39
-0.014281468 -0.0096502751 0.061638217 9.219563e-39
-0.014411224 -0.0094499094 0.062078629 9.219563e-39
-0.014785875 -0.0088713821 0.056557283 9.219563e-39
-0.01466178 -0.0090630064 0.063575633 9.219563e-39
-0.014501141 -0.0093110604 0.069117814 9.219563e-39
-0.014398073 -0.0094702179 0.055715162 9.219563e-39
-0.014458683 -0.0093766237 0.060030948 9.219563e-39
-0.014457369 -0.009378653 0.063188791 9.219563e-39
-0.014627178 -0.0091164373 0.059046615 9.219563e-39
-0.014611628 -0.0091404496 0.057470366 9.219563e-39
-0.014156179 -0.0098437453 0.069355406 9.219563e-39
-0.014400464 -0.0094665242 0.058660075 9.219563e-39
-0.014201535 -0.009773707 0.076895073 9.219563e-39
-0.014343803 -0.0095540192 0.057218105 9.219563e-39
-0.014203598 -0.009770521 0.079084508 9.219563e-39
-0.014406812 -0.0094567211 0.060990602 9.219563e-39
-0.014310723 -0.0096051013 0.072110295 9.219563e-39
-0.014287473 -0.0096410029 0.070235312 9.219563e-39
-0.013660132 -0.010495893 0.071138278 9.219563e-39
-0.013611495 -0.010559699 0.065658391 9.219563e-39
-0.013554758 -0.010634131 0.081212565 9.219563e-39
-0.013772928 -0.010347919 0.076638699 9.219563e-39
-0.0136582 -0.010498427 0.075062372 9.219563e-39
-0.013413561 -0.010819365 0.074527599 9.219563e-39
-0.013717036 -0.010421242 0.069184184 9.219563e-39
-0.013396936 -0.010841176 0.081982896 9.219563e-39
-0.013784801 -0.010332341 0.078490265 9.219563e-39
-0.013892623 -0.010190893 0.082090497 9.219563e-39
-0.013980072 -0.01007617 0.084987625 9.219563e-39
-0.013485963 -0.010724382 0.066780977 9.219563e-39
-0.014059691 -0.0099717183 0.084457956 9.219563e-39
-0.013392653 -0.010846793 0.06933032 9.219563e-39
-0.013575483 -0.010606943 0.072609171 9.219563e-39
-0.013803048 -0.010308404 0.082771383 9.219563e-39
-0.013470354 -0.010744859 0.083202615 9.219563e-39
-0.013384867 -0.010857009 0.058186974 9.219563e-39
-0.013447669 -0.010774618 0.059395142 9.219563e-39
-0.013434762 -0.01079155 0.069950648 9.219563e-39
-0.013518691 -0.010681447 0.080274463 9.219563e-39
-0.014053038 -0.0099804467 0.083571032 9.219563e-39
-0.013655531 -0.010501929 0.07977318 9.219563e-39
-0.013348864 -0.010904239 0.071065202 9.219563e-39
-0.013545274 -0.010646573 0.073437318 9.219563e-39
-0.013654421 -0.010503385 0.085117735 9.219563e-39
-0.013723691 -0.010412511 0.076036856 9.219563e-39
-0.013842567 -0.01025656 0.080594718 9.219563e-39
-0.013534867 -0.010660225 0.084112257 9.219563e-39
-0.013805985 -0.010304551 0.079027355 9.219563e-39
-0.013394739 -0.010844057 0.068394527 9.219563e-39
-0.013373365 -0.010872097 0.073015012 9.219563e-39
-0.013436601 -0.010789138 0.077522941 9.219563e-39
-0.013412778 -0.010820392 0.082555354 9.219563e-39
-0.013529631 -0.010667094 0.078841738 9.219563e-39
-0.013347482 -0.010906053 0.066227183 9.219563e-39
-0.013355896 -0.010895015 0.059946641 9.219563e-39
-0.013801309 -0.010310684 0.073724389 9.219563e-39
-0.01355594 -0.010632579 0.077032015 9.219563e-39
-0.013924584 -0.010148963 0.081478991 9.219563e-39
-0.013830666 -0.010272172 0.077500626 9.219563e-39
-0.013409276 -0.010824987 0.064682283 9.219563e-39
-0.013396123 -0.01084224 0.084655866 9.219563e-39
-0.013069233 -0.011218409 0.078583293 9.219563e-39
-0.013336255 -0.010918787 0.061421335 9.219563e-39
-0.013092779 -0.011191988 0.08412274 9.219563e-39
-0.013042159 -0.011248788 0.065906934 9.219563e-39
-0.012717172 -0.011613452 0.078776672 9.219563e-39
-0.013133327 -0.011146489 0.077226743 9.219563e-39
-0.013002638 -0.011293135 0.083372444 9.219563e-39
-0.013171297 -0.011103882 0.081195995 9.219563e-39
-0.013094143 -0.011190457 0.07794667 9.219563e-39
-0.013197133 -0.011074893 0.063969985 9.219563e-39
-0.013172912 -0.011102071 0.066810928 9.219563e-39
-0.013258134 -0.011006446 0.058745191 9.219563e-39
-0.012488305 -0.011870261 0.085250564 9.219563e-39
-0.012809877 -0.011509429 0.079952084 9.219563e-39
-0.012888686 -0.011420999 0.075234607 9.219563e-39
-0.012692925 -0.01164066 0.082190245 9.219563e-39
-0.012996214 -0.011300343 0.076067358 9.219563e-39
-0.013116501 -0.011165369 0.074879333 9.219563e-39
-0.013100633 -0.011183174 0.082214065 9.219563e-39
-0.013143011 -0.011135623 0.073633187 9.219563e-39
-0.013118447 -0.011163186 0.067891218 9.219563e-39
-0.013126833 -0.011153775 0.080578372 9.219563e-39
-0.012603422 -0.01174109 0.083495297 9.219563e-39
-0.012881541 -0.011429016 0.072376505 9.219563e-39
-0.01288802 -0.011421745 0.076639816 9.219563e-39
-0.012833493 -0.011482929 0.080973275 9.219563e-39
-0.012832413 -0.011484141 0.08169347 9.219563e-39
-0.013280422 -0.010981436 0.063148327 9.219563e-39
-0.0128815 -0.011429061 0.084588774 9.219563e-39
-0.013025666 -0.011267295 0.069039993 9.219563e-39
-0.012728684 -0.011600535 0.07739675 9.219563e-39
-0.01296635 -0.011333853 0.082890078 9.219563e-39
-0.013214124 -0.011055828 0.06517607 9.219563e-39
-0.013297106 -0.010962714 0.079921283 9.219563e-39
-0.013063369 -0.011224988 0.072808035 9.219563e-39
-0.013300179 -0.010959268 0.075415827 9.219563e-39
-0.013005145 -0.011290321 0.071905404 9.219563e-39
-0.012567309 -0.011781611 0.084179588 9.219563e-39
-0.013269732 -0.010993431 0.070553958 9.219563e-39
-0.013041168 -0.011249899 0.069656134 9.219563e-39
-0.013144381 -0.011134086 0.062651426 9.219563e-39
-0.013330864 -0.010924836 0.079310872 9.219563e-39
-0.013164208 -0.011111839 0.061880477 9.219563e-39
-0.012843266 -0.011471963 0.074521944 9.219563e-39
-0.01330036 -0.010959065 0.072155386 9.219563e-39
-0.013412525 -0.010820724 0.056121562 9.219563e-39
-0.013771614 -0.010349642 0.070279934 9.219563e-39
-0.013720432 -0.010416786 0.06011571 9.219563e-39
-0.013701672 -0.010441398 0.067592487 9.219563e-39
-0.014048981 -0.0099857701 0.075746626 9.219563e-39
-0.01410831 -0.0099079367 0.080034718 9.219563e-39
-0.013827205 -0.010276713 0.062028609 9.219563e-39
-0.01383626 -0.010264834 0.069717392 9.219563e-39
-0.013874447 -0.010214737 0.061470926 9.219563e-39
-0.014046655 -0.0099888211 0.057914551 9.219563e-39
-0.013727501 -0.010407512 0.060692705 9.219563e-39
-0.013923955 -0.010149788 0.068116516 9.219563e-39
-0.01413338 -0.009875048 0.062531106 9.219563e-39
-0.014045796 -0.0099899461 0.076278009 9.219563e-39
-0.013851615 -0.01024469 0.071852215 9.219563e-39
-0.013702952 -0.010439717 0.063972786 9.219563e-39
-0.014011148 -0.010035401 0.074548893 9.219563e-39
-0.014074214 -0.0099526662 0.066024624 9.219563e-39
-0.01398211 -0.010073496 0.07505998 9.219563e-39
-0.013359776 -0.010889925 0.05544186 9.219563e-39
-0.013809246 -0.010300273 0.064911671 9.219563e-39
-0.013902268 -0.010178238 0.073155127 9.219563e-39
-0.013776562 -0.01034315 0.063299574 9.219563e-39
-0.013814431 -0.010293471 0.059641413 9.219563e-39
-0.01382399 -0.01028093 0.056684639 9.219563e-39
-0.014089071 -0.0099331755 0.060636926 9.219563e-39
-0.013989176 -0.010064226 0.067133181 9.219563e-39
-0.013966838 -0.010093532 0.0686244 9.219563e-39
-0.014052982 -0.0099805193 0.064033292 9.219563e-39
-0.013915637 -0.010160701 0.058743089 9.219563e-39
-0.014095552 -0.0099246735 0.060065646 9.219563e-39
-0.014052746 -0.0099808304 0.055446021 9.219563e-39
-0.013642171 -0.010519455 0.057681639 9.219563e-39
-0.014145807 -0.0098587452 0.081081294 9.219563e-39
-0.01405788 -0.0099740941 0.065470621 9.219563e-39
-0.014060064 -0.0099712284 0.077849127 9.219563e-39
-0.013774343 -0.010346062 0.056090981 9.219563e-39
-0.01405552 -0.0099771898 0.059324618 9.219563e-39
-0.014138547 -0.0098682689 0.063389599 9.219563e-39
-0.013620766 -0.010547535 0.062450338 9.219563e-39
-0.014049773 -0.0099847298 0.070616893 9.219563e-39
-0.013839941 -0.010260005 0.062797666 9.219563e-39
-0.013990005 -0.010063139 0.072450496 9.219563e-39
-0.012534307 -0.011818642 0.073944435 9.219563e-39
-0.013166224 -0.011109577 0.060840279 9.219563e-39
-0.012546011 -0.011805509 0.076734431 9.219563e-39
-0.012659826 -0.011677798 0.069470339 9.219563e-39
-0.012754775 -0.011571258 0.071248569 9.219563e-39
-0.013070222 -0.011217299 0.064451985 9.219563e-39
-0.012953432 -0.011348347 0.058904435 9.219563e-39
-0.013239535 -0.011027315 0.057543356 9.219563e-39
-0.012777541 -0.011545712 0.065083154 9.219563e-39
-0.012484115 -0.011874963 0.068394057 9.219563e-39
-0.012576821 -0.011770938 0.075026833 9.219563e-39
-0.01256279 -0.011786682 0.059338115 9.219563e-39
-0.012780775 -0.011542084 0.065591112 9.219563e-39
-0.012771402 -0.011552601 0.060501058 9.219563e-39
-0.012726117 -0.011603415 0.061059032 9.219563e-39
-0.012742311 -0.011585243 0.056014251 9.219563e-39
-0.012562029 -0.011787536 0.06471093 9.219563e-39
-0.013030374 -0.011262012 0.056378491 9.219563e-39
-0.012732534 -0.011596214 0.066919416 9.219563e-39
-0.012895468 -0.011413388 0.068279341 9.219563e-39
-0.012854876 -0.011458936 0.05737669 9.219563e-39
-0.012659962 -0.011677646 0.066376463 9.219563e-39
-0.012723296 -0.011606581 0.062773995 9.219563e-39
-0.012469221 -0.011891675 0.079763122 9.219563e-39
-0.012527805 -0.011825939 0.07834959 9.219563e-39
-0.012908859 -0.011398362 0.057960954 9.219563e-39
-0.012704959 -0.011627155 0.072873108 9.219563e-39
-0.012692308 -0.011641352 0.067825332 9.219563e-39
-0.012619305 -0.011723267 0.056807075 9.219563e-39
-0.012657762 -0.011680115 0.070571251 9.219563e-39
-0.012661672 -0.011675728 0.073391877 9.219563e-39
-0.013036577 -0.011255052 0.055712923 9.219563e-39
-0.013108459 -0.011174394 0.060267646 9.219563e-39
-0.012886355 -0.011423614 0.055239733 9.219563e-39
-0.012881011 -0.011429611 0.062239155 9.219563e-39
-0.012936452 -0.0113674 0.067346007 9.219563e-39
-0.012828442 -0.011488597 0.063995354 9.219563e-39
-0.012502679 -0.011854132 0.080868453 9.219563e-39
-0.012977992 -0.011320789 0.063524626 9.219563e-39
-0.013003369 -0.011292314 0.059664033 9.219563e-39
-0.012627759 -0.011713781 0.0761384 9.219563e-39
-0.012588619 -0.0117577 0.058093149 9.219563e-39
-0.012684253 -0.01165039 0.070043474 9.219563e-39
-0.011661617 -0.012669581 0.070463739 9.219563e-39
-0.011572103 -0.012755729 0.072792776 9.219563e-39
-0.011645726 -0.012684875 0.068390094 9.219563e-39
-0.011768145 -0.012567059 0.069703542 9.219563e-39
-0.012202112 -0.012149409 0.083528958 9.219563e-39
-0.011590766 -0.012737769 0.078237779 9.219563e-39
-0.012123332 -0.012225227 0.077917494 9.219563e-39
-0.011541526 -0.012785156 0.061426003 9.219563e-39
-0.011975835 -0.012367178 0.072727382 9.219563e-39
-0.01185159 -0.012486751 0.080725811 9.219563e-39
-0.011767871 -0.012567322 0.080202021 9.219563e-39
-0.011602687 -0.012726296 0.08486516 9.219563e-39
-0.012017438 -0.01232714 0.081563964 9.219563e-39
-0.011827264 -0.012510163 0.075504623 9.219563e-39
-0.011754014 -0.012580658 0.076610111 9.219563e-39
-0.011570463 -0.012757307 0.059105244 9.219563e-39
-0.012178769 -0.012171875 0.084829547 9.219563e-39
-0.012221002 -0.01213123 0.084135585 9.219563e-39
-0.01195207 -0.012390049 0.074565448 9.219563e-39
-0.011582861 -0.012745376 0.065069459 9.219563e-39
-0.011940921 -0.01240078 0.08311066 9.219563e-39
-0.011966609 -0.012376057 0.077056788 9.219563e-39
-0.012228853 -0.012123674 0.079344518 9.219563e-39
-0.01211417 -0.012234045 0.079895623 9.219563e-39
-0.011521611 -0.012804322 0.059894752 9.219563e-39
-0.01179385 -0.012542319 0.078955337 9.219563e-39
-0.011985773 -0.012357613 0.073874362 9.219563e-39
-0.011896195 -0.012443824 0.070963994 9.219563e-39
-0.011637618 -0.012692678 0.064096391 9.219563e-39
-0.011656391 -0.012674611 0.071484707 9.219563e-39
-0.01164085 -0.012689567 0.063174896 9.219563e-39
-0.011954316 -0.012387889 0.082379848 9.219563e-39
-0.011536648 -0.012789851 0.083294749 9.219563e-39
-0.011653717 -0.012677184 0.081937805 9.219563e-39
-0.011555107 -0.012772086 0.074036248 9.219563e-39
-0.011746762 -0.012587638 0.067859881 9.219563e-39
-0.011545646 -0.012781191 0.069026053 9.219563e-39
-0.011788535 -0.012547435 0.073383421 9.219563e-39
-0.011605218 -0.012723859 0.077465311 9.219563e-39
-0.012167965 -0.012182273 0.080485404 9.219563e-39
-0.011650668 -0.012680118 0.084303074 9.219563e-39
-0.012235415 -0.012117359 0.0787668 9.219563e-39
-0.012111749 -0.012236374 0.076280072 9.219563e-39
-0.01151861 -0.012807211 0.076166064 9.219563e-39
-0.011513931 -0.012811713 0.060836259 9.219563e-39
-0.012359935 -0.011997522 0.083002858 9.219563e-39
-0.0122215 -0.01213075 0.07541126 9.219563e-39
-0.012461023 -0.011900234 0.063208453 9.219563e-39
-0.012324179 -0.012031933 0.066853546 9.219563e-39
-0.012087134 -0.012260064 0.068246908 9.219563e-39
-0.012426595 -0.011933367 0.06755621 9.219563e-39
-0.011854866 -0.012483599 0.058737617 9.219563e-39
-0.012091435 -0.012255925 0.064164132 9.219563e-39
-0.012291485 -0.012063397 0.073025994 9.219563e-39
-0.012359607 -0.011997837 0.06885539 9.219563e-39
-0.01205812 -0.012287987 0.060780641 9.219563e-39
-0.012370031 -0.011987804 0.077244088 9.219563e-39
-0.012322789 -0.012033271 0.069366835 9.219563e-39
-0.012053797 -0.012292148 0.061292559 9.219563e-39
-0.01197529 -0.012367703 0.066047587 9.219563e-39
-0.012347193 -0.012009784 0.072046764 9.219563e-39
-0.012417508 -0.011942113 0.057599764 9.219563e-39
-0.011718459 -0.012614876 0.056915961 9.219563e-39
-0.012287734 -0.012067007 0.074401245 9.219563e-39
-0.012136112 -0.012212927 0.058273192 9.219563e-39
-0.012403827 -0.011955279 0.065875977 9.219563e-39
-0.01165435 -0.012676575 0.05577141 9.219563e-39
-0.012295286 -0.012059739 0.065151848 9.219563e-39
-0.012207499 -0.012144226 0.058854077 9.219563e-39
-0.012219626 -0.012132554 0.063569881 9.219563e-39
-0.012258145 -0.012095484 0.057021629 9.219563e-39
-0.01181947 -0.012517664 0.062289774 9.219563e-39
-0.012186434 -0.012164499 0.059439525 9.219563e-39
-0.01229412 -0.012060861 0.055989981 9.219563e-39
-0.011898804 -0.012441314 0.067047656 9.219563e-39
-0.011898241 -0.012441854 0.060283918 9.219563e-39
-0.012173183 -0.01217725 0.059998855 9.219563e-39
-0.012464829 -0.011896571 0.081770994 9.219563e-39
-0.012417942 -0.011941696 0.071258649 9.219563e-39
-0.012265241 -0.012088655 0.061893623 9.219563e-39
-0.011844985 -0.012493107 0.064736106 9.219563e-39
-0.011990728 -0.012352846 0.065441199 9.219563e-39
-0.01173629 -0.012597716 0.056325875 9.219563e-39
-0.011755172 -0.012579544 0.058190655 9.219563e-39
-0.012387604 -0.011970893 0.060510069 9.219563e-39
-0.011587618 -0.012740797 0.057414096 9.219563e-39
-0.012251697 -0.012101688 0.062692761 9.219563e-39
-0.012288872 -0.012065912 0.070206225 9.219563e-39
-0.010696579 -0.013486305 0.082162529 9.219563e-39
-0.010637461 -0.013535059 0.079489462 9.219563e-39
-0.011088737 -0.013162893 0.07314492 9.219563e-39
-0.010489053 -0.013657452 0.061173219 9.219563e-39
-0.011258461 -0.013022922 0.085172959 9.219563e-39
-0.011255977 -0.013024971 0.083854996 9.219563e-39
-0.010575413 -0.013586232 0.074440658 9.219563e-39
-0.010856474 -0.01335444 0.06729836 9.219563e-39
-0.010635699 -0.013536513 0.064709395 9.219563e-39
-0.010573681 -0.013587658 0.065309182 9.219563e-39
-0.011292663 -0.012994716 0.082266316 9.219563e-39
-0.010940359 -0.01328526 0.079094157 9.219563e-39
-0.01104037 -0.013202781 0.077578373 9.219563e-39
-0.010556474 -0.01360185 0.067861721 9.219563e-39
-0.010592366 -0.01357225 0.066012293 9.219563e-39
-0.010680614 -0.013499471 0.076797687 9.219563e-39
-0.010732112 -0.013457 0.084484771 9.219563e-39
-0.010641433 -0.013531784 0.068583734 9.219563e-39
-0.011007796 -0.013229645 0.081340723 9.219563e-39
-0.010666383 -0.013511207 0.070624433 9.219563e-39
-0.0105492 -0.013607848 0.081116661 9.219563e-39
-0.011156439 -0.01310706 0.084389076 9.219563e-39
-0.011069508 -0.013178751 0.074224032 9.219563e-39
-0.010941343 -0.013284449 0.074986391 9.219563e-39
-0.010579558 -0.013582812 0.063386448 9.219563e-39
-0.010551276 -0.013606137 0.083111241 9.219563e-39
-0.010558981 -0.013599782 0.073865712 9.219563e-39
-0.010532969 -0.013621234 0.069622397 9.219563e-39
-0.010814824 -0.013388788 0.076309755 9.219563e-39
-0.010719279 -0.013467585 0.080330394 9.219563e-39
-0.011158237 -0.013105576 0.080841877 9.219563e-39
-0.011044747 -0.013199171 0.08325965 9.219563e-39
-0.010584171 -0.013579008 0.071301401 9.219563e-39
-0.011190788 -0.013078731 0.078659311 9.219563e-39
-0.011214509 -0.013059169 0.079713315 9.219563e-39
-0.01109596 -0.013156937 0.082696699 9.219563e-39
-0.010939815 -0.013285709 0.078192689 9.219563e-39
-0.010818459 -0.013385791 0.083926141 9.219563e-39
-0.010765668 -0.013429328 0.071791261 9.219563e-39
-0.01110725 -0.013147625 0.067897819 9.219563e-39
-0.010958782 -0.013270066 0.065852977 9.219563e-39
-0.011061366 -0.013185466 0.071212068 9.219563e-39
-0.011098827 -0.013154572 0.060101394 9.219563e-39
-0.011396446 -0.012909126 0.079280213 9.219563e-39
-0.011196832 -0.013073747 0.059217945 9.219563e-39
-0.011239908 -0.013038223 0.064094178 9.219563e-39
-0.010758189 -0.013435496 0.059657644 9.219563e-39
-0.010874989 -0.01333917 0.058695745 9.219563e-39
-0.011053578 -0.013191888 0.069576383 9.219563e-39
-0.011286424 -0.012999862 0.067245379 9.219563e-39
-0.011281398 -0.013004006 0.055693623 9.219563e-39
-0.011384724 -0.012918794 0.076991923 9.219563e-39
-0.011399659 -0.012906476 0.065586559 9.219563e-39
-0.010786648 -0.013412026 0.063818328 9.219563e-39
-0.011362155 -0.012937406 0.06608744 9.219563e-39
-0.011507083 -0.012817884 0.070989259 9.219563e-39
-0.011432846 -0.012879107 0.066809177 9.219563e-39
-0.011321051 -0.012971303 0.074748017 9.219563e-39
-0.01098902 -0.01324513 0.062833823 9.219563e-39
-0.01108759 -0.013163839 0.068820588 9.219563e-39
-0.011365142 -0.012934943 0.05660437 9.219563e-39
-0.011117325 -0.013139317 0.061384458 9.219563e-39
-0.011432626 -0.012879289 0.0755293 9.219563e-39
-0.011156349 -0.013107134 0.070075594 9.219563e-39
-0.010946227 -0.013280421 0.057579253 9.219563e-39
-0.011066739 -0.013181035 0.065266475 9.219563e-39
-0.011101808 -0.013152113 0.057100259 9.219563e-39
-0.011138819 -0.01312159 0.071758337 9.219563e-39
-0.011305355 -0.012984249 0.063399285 9.219563e-39
-0.010633891 -0.013538004 0.055229526 9.219563e-39
-0.010613258 -0.01355502 0.056207839 9.219563e-39
-0.010551724 -0.013605767 0.056979366 9.219563e-39
-0.01099449 -0.013240619 0.060687821 9.219563e-39
-0.010632922 -0.013538803 0.057870578 9.219563e-39
-0.011457037 -0.012859156 0.08151675 9.219563e-39
-0.01139444 -0.01291078 0.05846088 9.219563e-39
-0.010984073 -0.013249209 0.056365687 9.219563e-39
-0.011080177 -0.013169953 0.072409943 9.219563e-39
-0.011400164 -0.01290606 0.061926726 9.219563e-39
-0.010864848 -0.013347534 0.055812281 9.219563e-39
-0.011434897 -0.012877416 0.062510543 9.219563e-39
-0.0107378 -0.01345231 0.062267322 9.219563e-39
-0.0095897596 -0.014290161 0.079317197 9.219563e-39
-0.0096775973 -0.014228378 0.063106924 9.219563e-39
-0.0094111422 -0.014415798 0.063658126 9.219563e-39
-0.0094822347 -0.014365792 0.058327492 9.219563e-39
-0.010162433 -0.013887354 0.079403333 9.219563e-39
-0.009780257 -0.014156169 0.075817697 9.219563e-39
-0.010031357 -0.01397955 0.080817863 9.219563e-39
-0.00995389 -0.014034039 0.072448269 9.219563e-39
-0.0095193889 -0.014339659 0.082855992 9.219563e-39
-0.0097894734 -0.014149687 0.084075317 9.219563e-39
-0.0097119091 -0.014204244 0.077342398 9.219563e-39
-0.0096939206 -0.014216897 0.078431047 9.219563e-39
-0.0094959438 -0.01435615 0.084706865 9.219563e-39
-0.010080194 -0.0139452 0.076269783 9.219563e-39
-0.0097583765 -0.014171559 0.079883091 9.219563e-39
-0.0097837048 -0.014153744 0.071011305 9.219563e-39
-0.0099378079 -0.014045351 0.083542638 9.219563e-39
-0.00981363 -0.014132695 0.068696417 9.219563e-39
-0.0099757286 -0.014018679 0.081452243 9.219563e-39
-0.0097325956 -0.014189693 0.074460864 9.219563e-39
-0.0097215893 -0.014197435 0.064660959 9.219563e-39
-0.0097107785 -0.014205039 0.069248617 9.219563e-39
-0.010406528 -0.013715663 0.083881952 9.219563e-39
-0.0096777957 -0.014228239 0.077906519 9.219563e-39
-0.010001666 -0.014000434 0.083074287 9.219563e-39
-0.010122346 -0.013915551 0.077100322 9.219563e-39
-0.0095405346 -0.014324785 0.07340806 9.219563e-39
-0.0095366249 -0.014327535 0.080506623 9.219563e-39
-0.0095760161 -0.014299829 0.069726519 9.219563e-39
-0.01011826 -0.013918425 0.078419529 9.219563e-39
-0.010316612 -0.013778907 0.082555696 9.219563e-39
-0.0099532241 -0.014034508 0.073608413 9.219563e-39
-0.0095800171 -0.014297014 0.070247635 9.219563e-39
-0.010225416 -0.013843053 0.07993196 9.219563e-39
-0.009502396 -0.014351612 0.067695267 9.219563e-39
-0.0096985996 -0.014213606 0.075282261 9.219563e-39
-0.010080904 -0.0139447 0.084940776 9.219563e-39
-0.010226735 -0.013842125 0.081893414 9.219563e-39
-0.0095363865 -0.014327703 0.082265437 9.219563e-39
-0.0095982514 -0.014284188 0.076354705 9.219563e-39
-0.0097376788 -0.014186118 0.066671275 9.219563e-39
-0.0090182042 -0.014650212 0.077715434 9.219563e-39
-0.0093454197 -0.014455679 0.059691373 9.219563e-39
-0.0087385355 -0.014816478 0.084166363 9.219563e-39
-0.0087774033 -0.01479337 0.07472381 9.219563e-39
-0.0088835591 -0.01473026 0.081806213 9.219563e-39
-0.0093131596 -0.014474858 0.064184219 9.219563e-39
-0.0091085909 -0.014596475 0.077146977 9.219563e-39
-0.0090098595 -0.014655173 0.08531855 9.219563e-39
-0.0091721369 -0.014558697 0.074358925 9.219563e-39
-0.0093422104 -0.014457586 0.068153933 9.219563e-39
-0.0093546528 -0.01445019 0.068715565 9.219563e-39
-0.0093951467 -0.014426115 0.072122268 9.219563e-39
-0.0085041337 -0.014955832 0.080715984 9.219563e-39
-0.0093820952 -0.014433874 0.066333763 9.219563e-39
-0.0086572217 -0.014864819 0.081321098 9.219563e-39
-0.0092675751 -0.014501958 0.065768778 9.219563e-39
-0.0086976932 -0.014840759 0.076558664 9.219563e-39
-0.0090942178 -0.01460502 0.064718395 9.219563e-39
-0.0090569863 -0.014627155 0.066821381 9.219563e-39
-0.0089116767 -0.014713543 0.078308918 9.219563e-39
-0.009353877 -0.014450651 0.061312247 9.219563e-39
-0.0088044684 -0.014777279 0.07543274 9.219563e-39
-0.0092121614 -0.014534902 0.07911285 9.219563e-39
-0.0092764916 -0.014496657 0.080126785 9.219563e-39
-0.0091880979 -0.014549208 0.072970003 9.219563e-39
-0.0091937631 -0.01454584 0.075095721 9.219563e-39
-0.0087934928 -0.014783805 0.075968511 9.219563e-39
-0.0090720141 -0.014618221 0.07154341 9.219563e-39
-0.0093038883 -0.014480369 0.081360377 9.219563e-39
-0.0089805024 -0.014672626 0.06931445 9.219563e-39
-0.008978961 -0.014673542 0.084592953 9.219563e-39
-0.0087423036 -0.014814238 0.083479598 9.219563e-39
-0.009019725 -0.014649307 0.070648216 9.219563e-39
-0.0085821152 -0.014909471 0.07788498 9.219563e-39
-0.0084873028 -0.014965838 0.079557188 9.219563e-39
-0.009316585 -0.014472821 0.062319785 9.219563e-39
-0.0085321609 -0.014939169 0.08462932 9.219563e-39
-0.0090343393 -0.014640619 0.070142187 9.219563e-39
-0.0090493718 -0.014631682 0.072481461 9.219563e-39
-0.009381582 -0.014434179 0.067110173 9.219563e-39
-0.0087876813 -0.01478726 0.07999777 9.219563e-39
-0.0092655914 -0.014503137 0.062897667 9.219563e-39
-0.009321738 -0.014469758 0.083398409 9.219563e-39
-0.0083601791 -0.015041415 0.085230701 9.219563e-39
-0.0090823565 -0.014612073 0.082608834 9.219563e-39
-0.0089876475 -0.014668378 0.068469681 9.219563e-39
-0.0089655025 -0.014681543 0.080674239 9.219563e-39
-0.0089367069 -0.014698663 0.073491581 9.219563e-39
-0.0088078119 -0.014775292 0.07895799 9.219563e-39
-0.010078213 -0.013946593 0.057060078 9.219563e-39
-0.010002663 -0.013999733 0.061422314 9.219563e-39
-0.010138185 -0.013904409 0.074372433 9.219563e-39
-0.010418261 -0.01370741 0.058738735 9.219563e-39
-0.010205976 -0.013856727 0.06483072 9.219563e-39
-0.010125148 -0.013913579 0.07178513 9.219563e-39
-0.010481776 -0.013662735 0.077409588 9.219563e-39
-0.010414672 -0.013709934 0.067390397 9.219563e-39
-0.0099240635 -0.014055018 0.06260515 9.219563e-39
-0.010327714 -0.013771099 0.064237773 9.219563e-39
-0.0098772999 -0.014087912 0.05862562 9.219563e-39
-0.010446851 -0.0136873 0.07569281 9.219563e-39
-0.0097809229 -0.014155701 0.064111158 9.219563e-39
-0.009760689 -0.014169933 0.056381457 9.219563e-39
-0.0099068601 -0.014067119 0.06735073 9.219563e-39
-0.010009353 -0.013995027 0.062087879 9.219563e-39
-0.010303461 -0.013788158 0.07795909 9.219563e-39
-0.0099619282 -0.014028385 0.060242139 9.219563e-39
-0.010001279 -0.014000706 0.060861483 9.219563e-39
-0.0095579606 -0.014312528 0.057837274 9.219563e-39
-0.01036735 -0.013743219 0.072389506 9.219563e-39
-0.0099214828 -0.014056834 0.065976284 9.219563e-39
-0.010247762 -0.013827335 0.056574121 9.219563e-39
-0.0096920133 -0.014218238 0.055782199 9.219563e-39
-0.010039824 -0.013973595 0.063500829 9.219563e-39
-0.010449665 -0.013685321 0.078923948 9.219563e-39
-0.010402663 -0.013718382 0.073216736 9.219563e-39
-0.010166425 -0.013884546 0.059376676 9.219563e-39
-0.010163311 -0.013886737 0.06996955 9.219563e-39
-0.010290616 -0.013797193 0.069231324 9.219563e-39
-0.0098261451 -0.014123892 0.065464459 9.219563e-39
-0.01035403 -0.013752589 0.074875154 9.219563e-39
-0.010351083 -0.013754661 0.055601347 9.219563e-39
-0.0095348647 -0.014328773 0.057171796 9.219563e-39
-0.010326394 -0.013772028 0.058179501 9.219563e-39
-0.009682049 -0.014225247 0.05920304 9.219563e-39
-0.010273749 -0.013809056 0.07052993 9.219563e-39
-0.0099643962 -0.014026649 0.068143308 9.219563e-39
-0.010398035 -0.013721636 0.066708781 9.219563e-39
-0.0099586416 -0.014030697 0.057785045 9.219563e-39
-0.0086550871 -0.014866089 0.071948156 9.219563e-39
-0.00836707 -0.015037318 0.076253027 9.219563e-39
-0.0087330453 -0.014819741 0.064488195 9.219563e-39
-0.0085644647 -0.014919965 0.068138219 9.219563e-39
-0.0089007886 -0.014720016 0.05630628 9.219563e-39
-0.0083763152 -0.015031821 0.059171032 9.219563e-39
-0.0083180536 -0.015066459 0.068850741 9.219563e-39
-0.0086518796 -0.014867995 0.058351163 9.219563e-39
-0.0083458927 -0.015049907 0.073578201 9.219563e-39
-0.0087295929 -0.014821794 0.063599907 9.219563e-39
-0.0089247786 -0.014705754 0.061944596 9.219563e-39
-0.0085225794 -0.014944865 0.05963875 9.219563e-39
-0.0088859573 -0.014728834 0.061086837 9.219563e-39
-0.0083817719 -0.015028577 0.075506821 9.219563e-39
-0.0087156165 -0.014830103 0.071101017 9.219563e-39
-0.0089123892 -0.01471312 0.062565736 9.219563e-39
-0.008695229 -0.014842223 0.060146295 9.219563e-39
-0.008438454 -0.014994879 0.056671392 9.219563e-39
-0.0091751246 -0.01455692 0.060541909 9.219563e-39
-0.0082880305 -0.015084308 0.067218415 9.219563e-39
-0.0083136139 -0.015069097 0.076869324 9.219563e-39
-0.0086568408 -0.014865045 0.057467889 9.219563e-39
-0.0091030486 -0.014599771 0.057624269 9.219563e-39
-0.0093347607 -0.014462016 0.056523863 9.219563e-39
-0.0086512789 -0.014868353 0.069812626 9.219563e-39
-0.0091151195 -0.014592594 0.058645334 9.219563e-39
-0.0086496985 -0.014869292 0.07404156 9.219563e-39
-0.0087939706 -0.014783521 0.066022307 9.219563e-39
-0.008683783 -0.014849029 0.062974647 9.219563e-39
-0.0088390457 -0.014756723 0.067725763 9.219563e-39
-0.0085434709 -0.014932445 0.065046154 9.219563e-39
-0.0083131203 -0.015069392 0.077460058 9.219563e-39
-0.0084650964 -0.01497904 0.063999332 9.219563e-39
-0.0087205805 -0.014827152 0.055608924 9.219563e-39
-0.0084229019 -0.015004125 0.06124023 9.219563e-39
-0.0089913188 -0.014666195 0.059146386 9.219563e-39
-0.00854614 -0.014930858 0.065556347 9.219563e-39
-0.0084554479 -0.014984776 0.072902434 9.219563e-39
-0.0074722059 -0.015490581 0.081747808 9.219563e-39
-0.0077763069 -0.015340012 0.084701724 9.219563e-39
-0.0071833213 -0.015633617 0.081371225 9.219563e-39
-0.0070964973 -0.015676606 0.072396837 9.219563e-39
-0.0077818772 -0.015337253 0.079068586 9.219563e-39
-0.0075074565 -0.015473127 0.077271223 9.219563e-39
-0.0077229477 -0.015366431 0.079912372 9.219563e-39
-0.0071548233 -0.015647728 0.080569088 9.219563e-39
-0.0075121545 -0.015470801 0.069408521 9.219563e-39
-0.0072039342 -0.015623411 0.079903096 9.219563e-39
-0.0072881104 -0.015581733 0.078878164 9.219563e-39
-0.0075093596 -0.015472185 0.083932213 9.219563e-39
-0.0073486753 -0.015551745 0.07944411 9.219563e-39
-0.0072419266 -0.0156046 0.064356044 9.219563e-39
-0.0077034966 -0.015376062 0.075000897 9.219563e-39
-0.0079038702 -0.01527685 0.076450862 9.219563e-39
-0.0072494186 -0.01560089 0.075881824 9.219563e-39
-0.0075829881 -0.015435729 0.083046697 9.219563e-39
-0.007097431 -0.015676145 0.061270412 9.219563e-39
-0.0075698579 -0.015442231 0.07554359 9.219563e-39
-0.0078276247 -0.015314602 0.081261411 9.219563e-39
-0.0070868153 -0.015681401 0.063850619 9.219563e-39
-0.0075253346 -0.015464275 0.082456023 9.219563e-39
-0.0071249707 -0.015662508 0.074290119 9.219563e-39
-0.0073520965 -0.015550051 0.067799807 9.219563e-39
-0.0071120379 -0.015668912 0.058895823 9.219563e-39
-0.0071461597 -0.015652018 0.06658268 9.219563e-39
-0.0076248306 -0.015415012 0.074306428 9.219563e-39
-0.0074360459 -0.015508485 0.073396683 9.219563e-39
-0.008083473 -0.015187924 0.082703017 9.219563e-39
-0.0076459018 -0.015404579 0.072817199 9.219563e-39
-0.0079944152 -0.015232019 0.083919488 9.219563e-39
-0.0072923806 -0.015579619 0.06984514 9.219563e-39
-0.0071649984 -0.01564269 0.077758379 9.219563e-39
-0.0077926549 -0.015331917 0.080561012 9.219563e-39
-0.0076330947 -0.015410921 0.071774088 9.219563e-39
-0.0073572178 -0.015547516 0.085035264 9.219563e-39
-0.0073370179 -0.015557517 0.076725058 9.219563e-39
-0.0078597208 -0.01529871 0.078151159 9.219563e-39
-0.0072157364 -0.015617567 0.075161174 9.219563e-39
-0.0076726037 -0.015391358 0.066862129 9.219563e-39
-0.0076155276 -0.015419618 0.061847668 9.219563e-39
-0.0081330482 -0.015163378 0.074043624 9.219563e-39
-0.0074237729 -0.015514562 0.062393621 9.219563e-39
-0.0077874735 -0.015334482 0.055300716 9.219563e-39
-0.00790173 -0.01527791 0.063510545 9.219563e-39
-0.0080110049 -0.015223805 0.067895509 9.219563e-39
-0.0080476729 -0.01520565 0.060033556 9.219563e-39
-0.0079982309 -0.015230129 0.056604303 9.219563e-39
-0.0081153214 -0.015172155 0.07465031 9.219563e-39
-0.0079847984 -0.015236781 0.070053652 9.219563e-39
-0.0080542369 -0.015202399 0.069303922 9.219563e-39
-0.0078000179 -0.015328271 0.064142771 9.219563e-39
-0.0074182083 -0.015517317 0.05774276 9.219563e-39
-0.0082122693 -0.015124152 0.071877956 9.219563e-39
-0.0081019308 -0.015178785 0.065350741 9.219563e-39
-0.007744859 -0.015355582 0.068955548 9.219563e-39
-0.0080766454 -0.015191304 0.061960269 9.219563e-39
-0.0082499841 -0.015105478 0.063117117 9.219563e-39
-0.0071135457 -0.015668165 0.055440299 9.219563e-39
-0.0080005601 -0.015228976 0.062596448 9.219563e-39
-0.0074059041 -0.015523409 0.063363858 9.219563e-39
-0.0079576094 -0.015250242 0.073197268 9.219563e-39
-0.0082144411 -0.015123077 0.055610735 9.219563e-39
-0.0082393307 -0.015110753 0.078525081 9.219563e-39
-0.0081897173 -0.015135319 0.064440854 9.219563e-39
-0.0075652017 -0.015444536 0.06043933 9.219563e-39
-0.0082312357 -0.015114762 0.081709661 9.219563e-39
-0.0079512848 -0.015253374 0.066412494 9.219563e-39
-0.007781303 -0.015337538 0.05877478 9.219563e-39
-0.0075771343 -0.015438627 0.059635576 9.219563e-39
-0.007695891 -0.015379827 0.057264466 9.219563e-39
-0.0082557984 -0.0151026 0.060565747 9.219563e-39
-0.0082533099 -0.015103832 0.057625886 9.219563e-39
-0.0081401719 -0.01515985 0.056141723 9.219563e-39
-0.0076940525 -0.015380738 0.070490316 9.219563e-39
-0.0076382728 -0.015408357 0.068331458 9.219563e-39
-0.0078215664 -0.015317602 0.064815551 9.219563e-39
-0.0078563895 -0.01530036 0.061242539 9.219563e-39
-0.0078527955 -0.015302139 0.071262717 9.219563e-39
-0.0075883232 -0.015433088 0.065271482 9.219563e-39
-0.0082395375 -0.015110651 0.08018557 9.219563e-39
-0.0080654016 -0.015196871 0.072529316 9.219563e-39
-0.0074028079 -0.015524942 0.05633498 9.219563e-39
-0.0075711408 -0.015441596 0.058340129 9.219563e-39
-0.0076042395 -0.015425207 0.065957114 9.219563e-39
-0.0061397003 -0.016064033 0.063012168 9.219563e-39
-0.005892517 -0.016163656 0.083027393 9.219563e-39
-0.0058612684 -0.016176252 0.068364203 9.219563e-39
-0.0062682717 -0.016012216 0.069483414 9.219563e-39
-0.0067865564 -0.01580333 0.078835644 9.219563e-39
-0.0061549684 -0.016057881 0.084572122 9.219563e-39
-0.0059507932 -0.01614017 0.062559821 9.219563e-39
-0.0062175407 -0.016032662 0.082414061 9.219563e-39
-0.0063936086 -0.015961701 0.07370919 9.219563e-39
-0.0062093614 -0.016035957 0.072201647 9.219563e-39
-0.0063892584 -0.015963454 0.070022151 9.219563e-39
-0.0061195544 -0.016072154 0.076628543 9.219563e-39
-0.0064818095 -0.015926152 0.071046986 9.219563e-39
-0.0059779212 -0.016129237 0.081357077 9.219563e-39
-0.0058745304 -0.016170906 0.06643261 9.219563e-39
-0.0069965064 -0.015718712 0.083581157 9.219563e-39
-0.0063075549 -0.015996384 0.079555094 9.219563e-39
-0.00603513 -0.016106179 0.065412946 9.219563e-39
-0.0067314133 -0.015825553 0.08457081 9.219563e-39
-0.005928868 -0.016149007 0.067572623 9.219563e-39
-0.0066119139 -0.015873715 0.079970978 9.219563e-39
-0.0067679621 -0.015810823 0.081077896 9.219563e-39
-0.0068294816 -0.015786029 0.079508491 9.219563e-39
-0.0059872912 -0.016125459 0.077984877 9.219563e-39
-0.0067117866 -0.015833464 0.08269091 9.219563e-39
-0.0060093477 -0.016116571 0.070775107 9.219563e-39
-0.006608793 -0.015874974 0.07688117 9.219563e-39
-0.006418684 -0.015951594 0.071584716 9.219563e-39
-0.006117227 -0.016073091 0.063979186 9.219563e-39
-0.0060922648 -0.016083153 0.075420015 9.219563e-39
-0.006404601 -0.01595727 0.073169872 9.219563e-39
-0.0058607338 -0.016176466 0.064440154 9.219563e-39
-0.0058725337 -0.016171711 0.056569863 9.219563e-39
-0.0062929559 -0.016002268 0.083387576 9.219563e-39
-0.0065549687 -0.015896667 0.081675999 9.219563e-39
-0.0061065345 -0.016077401 0.085087016 9.219563e-39
-0.0059034331 -0.016159257 0.073675916 9.219563e-39
-0.0060634329 -0.016094772 0.06062587 9.219563e-39
-0.0069864816 -0.015722752 0.084137328 9.219563e-39
-0.0061618178 -0.01605512 0.06491629 9.219563e-39
-0.0059628659 -0.016135303 0.081994094 9.219563e-39
-0.0059665609 -0.016133815 0.077151254 9.219563e-39
-0.0059148297 -0.016154664 0.071582042 9.219563e-39
-0.0067566866 -0.015815368 0.078161664 9.219563e-39
-0.0063334997 -0.015985927 0.080539517 9.219563e-39
-0.0060245181 -0.016110456 0.067084342 9.219563e-39
-0.0059264502 -0.016149981 0.058191821 9.219563e-39
-0.0065598353 -0.015894705 0.072708033 9.219563e-39
-0.0065485691 -0.015899247 0.07735455 9.219563e-39
-0.005885209 -0.016166603 0.069827415 9.219563e-39
-0.0058525591 -0.016179761 0.078462735 9.219563e-39
-0.0059517138 -0.0161398 0.083961919 9.219563e-39
-0.0061623286 -0.016054913 0.074352056 9.219563e-39
-0.0064169494 -0.015952293 0.066671409 9.219563e-39
-0.0069963234 -0.015718786 0.060544737 9.219563e-39
-0.0070384555 -0.015701806 0.067370191 9.219563e-39
-0.0063505773 -0.015979044 0.059740473 9.219563e-39
-0.0066248369 -0.015868507 0.060904358 9.219563e-39
-0.0067498102 -0.01581814 0.076337196 9.219563e-39
-0.0069749369 -0.015727405 0.068962134 9.219563e-39
-0.0070526279 -0.015696093 0.06504824 9.219563e-39
-0.0064787432 -0.015927387 0.068071745 9.219563e-39
-0.0064404956 -0.015942803 0.056929022 9.219563e-39
-0.0062635425 -0.016014121 0.061309684 9.219563e-39
-0.0061257114 -0.016069671 0.0591271 9.219563e-39
-0.0068469429 -0.01577899 0.056414157 9.219563e-39
-0.0062615634 -0.016014919 0.063510977 9.219563e-39
-0.0068139127 -0.015792303 0.075710915 9.219563e-39
-0.006664346 -0.015852584 0.07486143 9.219563e-39
-0.0066697253 -0.015850415 0.055777498 9.219563e-39
-0.0065138191 -0.015913252 0.064608052 9.219563e-39
-0.006974678 -0.015727511 0.072928131 9.219563e-39
-0.0069599971 -0.015733426 0.082175948 9.219563e-39
-0.006596968 -0.015879739 0.059096158 9.219563e-39
-0.0064222431 -0.01595016 0.058422409 9.219563e-39
-0.0064982623 -0.015919521 0.068761662 9.219563e-39
-0.0068849912 -0.015763657 0.059747238 9.219563e-39
-0.0069977241 -0.015718222 0.070998214 9.219563e-39
-0.0068575712 -0.015774708 0.073508024 9.219563e-39
-0.0068103848 -0.015793726 0.057778239 9.219563e-39
-0.0063184286 -0.015992001 0.057772554 9.219563e-39
-0.0067284475 -0.015826749 0.062839285 9.219563e-39
-0.0070760199 -0.015686665 0.070289418 9.219563e-39
-0.0064841053 -0.015925227 0.060299076 9.219563e-39
-0.0069636879 -0.01573194 0.068354435 9.219563e-39
-0.0066025918 -0.015877472 0.06389717 9.219563e-39
-0.006824241 -0.015788142 0.061798468 9.219563e-39
-0.006194802 -0.016041826 0.055831447 9.219563e-39
-0.0069004493 -0.015757427 0.071572334 9.219563e-39
-0.0069384063 -0.015742129 0.063350618 9.219563e-39
-0.0062098703 -0.016035752 0.061822645 9.219563e-39
-0.0065642823 -0.015892914 0.065636486 9.219563e-39
-0.0070120427 -0.015712451 0.065888934 9.219563e-39
-0.0045994027 -0.016576769 0.056879938 9.219563e-39
-0.0047790487 -0.016519917 0.066328287 9.219563e-39
-0.004609575 -0.01657355 0.069748774 9.219563e-39
-0.0050694565 -0.016428012 0.071589239 9.219563e-39
-0.0047426964 -0.016531421 0.065736435 9.219563e-39
-0.0051571587 -0.016400257 0.077418618 9.219563e-39
-0.0049116351 -0.016477957 0.068819381 9.219563e-39
-0.0045906608 -0.016579537 0.074143849 9.219563e-39
-0.0053339456 -0.016344309 0.084879264 9.219563e-39
-0.0054681147 -0.016301848 0.079318173 9.219563e-39
-0.0049925824 -0.01645234 0.078228198 9.219563e-39
-0.0050534983 -0.016433062 0.073782906 9.219563e-39
-0.0048920834 -0.016484145 0.084045418 9.219563e-39
-0.0047600633 -0.016525926 0.080641389 9.219563e-39
-0.0050067976 -0.01644784 0.081289262 9.219563e-39
-0.0052611977 -0.016367331 0.08088883 9.219563e-39
-0.0054639913 -0.016303154 0.084251903 9.219563e-39
-0.0050502843 -0.016434079 0.082659207 9.219563e-39
-0.0051520034 -0.016401889 0.081887856 9.219563e-39
-0.0053169094 -0.016349699 0.083207041 9.219563e-39
-0.005007267 -0.016447693 0.074858256 9.219563e-39
-0.0049919947 -0.016452527 0.066943407 9.219563e-39
-0.0050352975 -0.016438821 0.068249866 9.219563e-39
-0.0047546234 -0.016527647 0.072340608 9.219563e-39
-0.0046491362 -0.016561029 0.060104962 9.219563e-39
-0.004609785 -0.016573483 0.082888812 9.219563e-39
-0.0050123087 -0.016446097 0.067458197 9.219563e-39
-0.0046548205 -0.016559232 0.071244217 9.219563e-39
-0.0051836688 -0.016391866 0.073046789 9.219563e-39
-0.0047431896 -0.016531266 0.073356681 9.219563e-39
-0.0048125298 -0.016509321 0.079855077 9.219563e-39
-0.004744167 -0.016530955 0.075708039 9.219563e-39
-0.0052975486 -0.016355827 0.078644365 9.219563e-39
-0.0047158431 -0.01653992 0.063529998 9.219563e-39
-0.0047487896 -0.016529493 0.083556533 9.219563e-39
-0.0052187806 -0.016380755 0.075505719 9.219563e-39
-0.0046246401 -0.016568784 0.081849113 9.219563e-39
-0.0049640778 -0.016461361 0.070422962 9.219563e-39
-0.0048720073 -0.016490499 0.07655932 9.219563e-39
-0.0049863555 -0.016454311 0.079048149 9.219563e-39
-0.0055629066 -0.016271848 0.083635949 9.219563e-39
-0.0045952317 -0.016578089 0.077151284 9.219563e-39
-0.0054056291 -0.016321624 0.076342575 9.219563e-39
-0.004736919 -0.01653325 0.084902108 9.219563e-39
-0.0047832308 -0.016518593 0.059604213 9.219563e-39
-0.0055173766 -0.016286258 0.056211747 9.219563e-39
-0.0054635247 -0.016303301 0.064126164 9.219563e-39
-0.00553083 -0.016282 0.074049339 9.219563e-39
-0.0058007445 -0.016196581 0.06925422 9.219563e-39
-0.0056848689 -0.016233252 0.079814292 9.219563e-39
-0.0055560488 -0.01627402 0.065998822 9.219563e-39
-0.0054431688 -0.016309742 0.068588845 9.219563e-39
-0.0056360951 -0.016248686 0.07682424 9.219563e-39
-0.0051296884 -0.01640895 0.059247371 9.219563e-39
-0.0053130277 -0.016350929 0.063107245 9.219563e-39
-0.005131301 -0.01640844 0.064551011 9.219563e-39
-0.0048991344 -0.016481914 0.057321705 9.219563e-39
-0.0058341157 -0.016186019 0.080504164 9.219563e-39
-0.0057743834 -0.016204923 0.070320889 9.219563e-39
-0.0052797124 -0.016361471 0.07004866 9.219563e-39
-0.0053602401 -0.016335987 0.058585241 9.219563e-39
-0.0057618218 -0.016208898 0.07276094 9.219563e-39
-0.0050596828 -0.016431104 0.061843645 9.219563e-39
-0.0053495048 -0.016339384 0.06114785 9.219563e-39
-0.0053593274 -0.016336275 0.072444484 9.219563e-39
-0.0054506515 -0.016307374 0.071915723 9.219563e-39
-0.0050156666 -0.016445035 0.055720445 9.219563e-39
-0.005753702 -0.016211469 0.074943848 9.219563e-39
-0.0058311699 -0.016186953 0.059820753 9.219563e-39
-0.0047958717 -0.016514594 0.058623407 9.219563e-39
-0.0052395375 -0.016374186 0.069193587 9.219563e-39
-0.0054513682 -0.016307147 0.05774577 9.219563e-39
-0.0050248597 -0.016442126 0.056667715 9.219563e-39
-0.0057328334 -0.016218072 0.055463847 9.219563e-39
-0.0053906818 -0.016326353 0.062242106 9.219563e-39
-0.0054856245 -0.016296307 0.070837505 9.219563e-39
-0.0056573637 -0.016241957 0.061752677 9.219563e-39
-0.0053520636 -0.016338576 0.064970396 9.219563e-39
-0.0055633425 -0.01627171 0.060463812 9.219563e-39
-0.005461433 -0.016303962 0.067250267 9.219563e-39
-0.0054307911 -0.016313659 0.06361445 9.219563e-39
-0.0056012864 -0.016259704 0.059011992 9.219563e-39
-0.0055962917 -0.016261283 0.077672713 9.219563e-39
-0.0052812616 -0.016360981 0.059803884 9.219563e-39
-0.0049948837 -0.016451612 0.060591549 9.219563e-39
-0.0056753908 -0.016236251 0.075912364 9.219563e-39
-0.0042925654 -0.016649827 0.066285618 9.219563e-39
-0.0039938432 -0.016719729 0.064773835 9.219563e-39
-0.0034232708 -0.016853247 0.057385165 9.219563e-39
-0.003659528 -0.016797962 0.058126673 9.219563e-39
-0.0036848064 -0.016792046 0.055639513 9.219563e-39
-0.004010601 -0.016715808 0.057226405 9.219563e-39
-0.0038860976 -0.016744941 0.059151579 9.219563e-39
-0.0038254329 -0.016759139 0.060645789 9.219563e-39
-0.0043003052 -0.016648015 0.059548832 9.219563e-39
-0.0039447974 -0.016731206 0.062631063 9.219563e-39
-0.0045669689 -0.016585615 0.067684263 9.219563e-39
-0.0041152951 -0.016691308 0.069281481 9.219563e-39
-0.0044601415 -0.016610613 0.065203741 9.219563e-39
-0.0041266256 -0.016688658 0.056538988 9.219563e-39
-0.0044121882 -0.016621834 0.078427628 9.219563e-39
-0.0043048859 -0.016646944 0.061185159 9.219563e-39
-0.0040166597 -0.01671439 0.058543514 9.219563e-39
-0.003790586 -0.016767293 0.063802324 9.219563e-39
-0.0042436691 -0.016661268 0.057703268 9.219563e-39
-0.0041756174 -0.016677193 0.070820592 9.219563e-39
-0.0040174774 -0.016714199 0.060059704 9.219563e-39
-0.0039298008 -0.016734716 0.06755466 9.219563e-39
-0.0045558866 -0.016588207 0.064003825 9.219563e-39
-0.0043749558 -0.016630547 0.071901046 9.219563e-39
-0.0043297522 -0.016641125 0.060540788 9.219563e-39
-0.0045754807 -0.016583623 0.064575367 9.219563e-39
-0.0040042531 -0.016717292 0.061698992 9.219563e-39
-0.0037075619 -0.016786721 0.063114196 9.219563e-39
-0.0045800777 -0.016582547 0.061587986 9.219563e-39
-0.0039419923 -0.016731862 0.065427616 9.219563e-39
-0.00448784 -0.016604131 0.076206215 9.219563e-39
-0.0040824679 -0.01669899 0.073333189 9.219563e-39
-0.0045145019 -0.016597893 0.06714122 9.219563e-39
-0.0036218795 -0.01680677 0.056445066 9.219563e-39
-0.0045574517 -0.016587842 0.062242821 9.219563e-39
-0.004250932 -0.016659569 0.055760272 9.219563e-39
-0.0042123809 -0.01666859 0.063506268 9.219563e-39
-0.00457686 -0.016583299 0.058152352 9.219563e-39
-0.0043349788 -0.016639901 0.068126962 9.219563e-39
-0.0045293593 -0.016594416 0.056193706 9.219563e-39
-0.0043694614 -0.016631832 0.062879205 9.219563e-39
-0.0045592384 -0.016587423 0.072880022 9.219563e-39
