# .PCD v0.7 - Point Cloud Data file format
VERSION 0.7
FIELDS x y z rgb
SIZE 4 4 4 4
TYPE F F F F
COUNT 1 1 1 1
WIDTH 1083
HEIGHT 1
VIEWPOINT 0 0 0 1 0 0 0
POINTS 1083
DATA ascii
0.026490923 0.037 -0.021093955 9.219563e-39
0.026595773 0.037 -0.030900666 9.219563e-39
0.036539868 0.037 -0.035721473 9.219563e-39
0.03421022 0.037 -0.021487664 9.219563e-39
0.038810734 0.037 -0.033356838 9.219563e-39
0.029321006 0.037 -0.02238464 9.219563e-39
0.027098911 0.037 -0.011352276 9.219563e-39
0.022831688 0.037 -0.024120694 9.219563e-39
0.02768339 0.037 -0.032058019 9.219563e-39
0.033017296 0.037 -0.0011210899 9.219563e-39
0.035688374 0.037 -0.02011654 9.219563e-39
0.0372913 0.037 -0.036823735 9.219563e-39
0.039915796 0.037 -0.040720113 9.219563e-39
0.021648576 0.037 -0.026965296 9.219563e-39
0.032766823 0.037 0.0041396758 9.219563e-39
0.026651824 0.037 -0.018184906 9.219563e-39
0.033496574 0.037 -0.037092987 9.219563e-39
0.031000514 0.037 -0.014092576 9.219563e-39
0.027785754 0.037 -0.015068505 9.219563e-39
0.029933814 0.037 -0.0062801363 9.219563e-39
0.040699594 0.037 -0.03885163 9.219563e-39
0.029142443 0.037 -0.0042466563 9.219563e-39
0.026488662 0.037 -0.01338371 9.219563e-39
0.036780547 0.037 -0.025010917 9.219563e-39
0.027584342 0.037 -0.025366036 9.219563e-39
0.025969071 0.037 -0.031996042 9.219563e-39
0.029914448 0.037 -0.017660191 9.219563e-39
0.033093289 0.037 0.00022760987 9.219563e-39
0.031800628 0.037 0.0024722167 9.219563e-39
0.03623987 0.037 -0.014588493 9.219563e-39
0.030161727 0.037 -0.035902567 9.219563e-39
0.032151397 0.037 -0.016290056 9.219563e-39
0.037611425 0.037 -0.022449691 9.219563e-39
0.033846032 0.037 -0.013024531 9.219563e-39
0.028232057 0.037 -0.011889714 9.219563e-39
0.022793993 0.037 -0.029421782 9.219563e-39
0.038311318 0.037 -0.030040024 9.219563e-39
0.033593193 0.037 -0.0054027219 9.219563e-39
0.023213077 0.037 -0.042950511 9.219563e-39
0.026926406 0.037 -0.043699656 9.219563e-39
0.028527232 0.037 -0.044488993 9.219563e-39
0.032904338 0.037 -0.045735236 9.219563e-39
0.021698333 0.037 -0.043737359 9.219563e-39
0.024565974 0.037 -0.042927537 9.219563e-39
0.024053667 0.037 -0.043920375 9.219563e-39
0.020938559 0.037 -0.042478032 9.219563e-39
0.030303074 0.037 -0.044793569 9.219563e-39
0.031472895 0.037 -0.04517914 9.219563e-39
0.026568754 0.037 -0.046008885 9.219563e-39
0.023507498 0.037 -0.044960443 9.219563e-39
0.040108051 0.037 -0.048694331 9.219563e-39
0.039341461 0.037 -0.047612961 9.219563e-39
0.028395241 0.037 -0.04561387 9.219563e-39
0.035442233 0.037 -0.046641357 9.219563e-39
0.03930397 0.037 -0.049683858 9.219563e-39
0.038804643 0.037 -0.048586048 9.219563e-39
0.037960153 0.037 -0.050024539 9.219563e-39
0.032875299 0.037 -0.046974555 9.219563e-39
0.03000986 0.037 -0.045841984 9.219563e-39
0.033476543 0.037 -0.048555441 9.219563e-39
0.028622864 0.037 -0.046717227 9.219563e-39
0.036952648 0.037 -0.048410341 9.219563e-39
0.033944622 0.037 -0.046476446 9.219563e-39
0.037690911 0.037 -0.04736926 9.219563e-39
0.031554196 0.037 -0.047318328 9.219563e-39
0.041761857 0.037 -0.04857377 9.219563e-39
0.030237505 0.037 -0.046987001 9.219563e-39
0.040417094 0.037 -0.047205348 9.219563e-39
0.034816042 0.037 -0.04828766 9.219563e-39
0.042146251 0.037 -0.049592655 9.219563e-39
0.02548337 0.037 -0.045018271 9.219563e-39
0.035901826 0.037 -0.047659464 9.219563e-39
0.022298653 0.037 -0.041913375 9.219563e-39
0.034814499 0.037 -0.045166466 9.219563e-39
0.021902436 0.037 -0.040937494 9.219563e-39
0.024368934 0.037 -0.041302275 9.219563e-39
0.025795661 0.037 -0.043056693 9.219563e-39
0.036220588 0.037 -0.045020659 9.219563e-39
0.027605556 0.037 -0.042185321 9.219563e-39
0.029116638 0.037 -0.042649809 9.219563e-39
0.032689426 0.037 -0.044487093 9.219563e-39
0.026264025 0.037 -0.042040665 9.219563e-39
0.037626684 0.037 -0.045714393 9.219563e-39
0.0304006 0.037 -0.043624908 9.219563e-39
0.038589325 0.037 -0.044560891 9.219563e-39
0.024941023 0.037 -0.03544027 9.219563e-39
0.028553236 0.037 -0.037899408 9.219563e-39
0.023193346 0.037 -0.033621021 9.219563e-39
0.023249449 0.037 -0.034966644 9.219563e-39
0.030364061 0.037 -0.039702844 9.219563e-39
0.02663096 0.037 -0.036813632 9.219563e-39
0.035938341 0.037 -0.043356683 9.219563e-39
0.025847046 0.037 -0.037882321 9.219563e-39
0.02920101 0.037 -0.039479706 9.219563e-39
0.025646418 0.037 -0.039149269 9.219563e-39
0.033810958 0.037 -0.042568229 9.219563e-39
0.028532336 0.037 -0.040397752 9.219563e-39
0.029865401 0.037 -0.041048441 9.219563e-39
0.023762595 0.037 -0.037860334 9.219563e-39
0.027470354 0.037 -0.039114986 9.219563e-39
0.031743523 0.037 -0.041449729 9.219563e-39
0.024738198 0.037 -0.037268668 9.219563e-39
0.023380147 0.037 -0.03670254 9.219563e-39
0.022190697 0.037 -0.035765745 9.219563e-39
0.0416077 0.037 -0.04688058 9.219563e-39
0.024575051 0.037 -0.038837396 9.219563e-39
0.039392143 0.037 -0.046054222 9.219563e-39
0.021964222 0.037 -0.038917504 9.219563e-39
0.033849292 0.037 -0.044027891 9.219563e-39
0.02677973 0.037 -0.040107831 9.219563e-39
0.02304798 0.037 -0.038880348 9.219563e-39
0.031661496 0.037 -0.043326613 9.219563e-39
0.023959801 0.037 -0.039998554 9.219563e-39
0.030623937 0.037 -0.042335484 9.219563e-39
0.021957133 0.037 -0.037776183 9.219563e-39
0.025606459 0.037 -0.041166175 9.219563e-39
0.021573883 0.037 -0.025788227 9.219563e-39
0.021838646 0.037 -0.022126092 9.219563e-39
0.02510974 0.037 -0.013320833 9.219563e-39
0.023394257 0.037 -0.019044353 9.219563e-39
0.022062253 0.037 -0.020523958 9.219563e-39
0.024006402 0.037 -0.017261833 9.219563e-39
0.027436228 0.037 -0.0074477918 9.219563e-39
0.025367003 0.037 -0.014454133 9.219563e-39
0.020149615 0.037 -0.025834206 9.219563e-39
0.020468725 0.037 -0.024515161 9.219563e-39
0.025667941 0.037 -0.011780526 9.219563e-39
0.022492759 0.037 0.0014755519 9.219563e-39
0.029618545 0.037 0.011154081 9.219563e-39
0.029483285 0.037 0.0074922065 9.219563e-39
0.028010415 0.037 0.0072752163 9.219563e-39
0.024035081 0.037 0.001449291 9.219563e-39
0.023543971 0.037 0.0023846261 9.219563e-39
0.020165619 0.037 -0.0019470134 9.219563e-39
0.028722741 0.037 0.0085086618 9.219563e-39
0.03064313 0.037 0.010451926 9.219563e-39
0.020271078 0.037 -0.0037367181 9.219563e-39
0.020932518 0.037 -0.002865226 9.219563e-39
0.011772563 0.037 -0.013646743 9.219563e-39
0.028881377 0.037 0.009629406 9.219563e-39
0.027671494 0.037 0.0061387299 9.219563e-39
0.030267812 0.037 0.0082701389 9.219563e-39
0.0225686 0.037 0.00021968651 9.219563e-39
0.015875667 0.037 -0.0079512801 9.219563e-39
0.021521419 0.037 -0.0010738958 9.219563e-39
0.024056988 0.037 0.0035967473 9.219563e-39
0.018266782 0.037 -0.0044225128 9.219563e-39
0.02679644 0.037 0.0070041353 9.219563e-39
0.02533279 0.037 0.0041161757 9.219563e-39
0.025920127 0.037 0.0061814249 9.219563e-39
0.02649764 0.037 0.0052822172 9.219563e-39
0.013121456 0.037 -0.01164253 9.219563e-39
0.030706873 0.037 0.011853429 9.219563e-39
0.029988466 0.037 0.0095391618 9.219563e-39
0.028311314 0.037 0.010616885 9.219563e-39
0.014896143 0.037 -0.0089347139 9.219563e-39
0.027275674 0.037 0.011153081 9.219563e-39
0.028723527 0.037 0.013930878 9.219563e-39
0.013985228 0.037 -0.0095254807 9.219563e-39
0.021967899 0.037 0.0024816555 9.219563e-39
0.028150905 0.037 0.01288794 9.219563e-39
0.020845041 0.037 -0.00015608253 9.219563e-39
0.020499229 0.037 0.00099125586 9.219563e-39
0.029174313 0.037 0.012603016 9.219563e-39
0.019282572 0.037 -0.0025845484 9.219563e-39
0.029855315 0.037 0.013587321 9.219563e-39
0.01737419 0.037 -0.0036338076 9.219563e-39
0.023082167 0.037 0.0048199473 9.219563e-39
0.026222855 0.037 0.0088833468 9.219563e-39
0.016785545 0.037 -0.0064228899 9.219563e-39
0.024986848 0.037 0.0054291096 9.219563e-39
0.019312833 0.037 -0.0011176949 9.219563e-39
0.027117109 0.037 0.0080948938 9.219563e-39
0.026442097 0.037 0.010120531 9.219563e-39
0.02518246 0.037 0.0073659397 9.219563e-39
0.027690912 0.037 0.009256864 9.219563e-39
0.017262047 0.037 -0.0053723077 9.219563e-39
0.019832315 0.037 -0.0064630727 9.219563e-39
0.014200198 0.037 -0.013742212 9.219563e-39
0.018236157 0.037 -0.0064707343 9.219563e-39
0.016897971 0.037 -0.01009337 9.219563e-39
0.01742398 0.037 -0.0079373652 9.219563e-39
0.024333375 0.037 0.00022111133 9.219563e-39
0.023441261 0.037 -0.00073301309 9.219563e-39
0.01578375 0.037 -0.011645009 9.219563e-39
0.011444293 0.037 -0.014880849 9.219563e-39
0.01470672 0.037 -0.010494801 9.219563e-39
0.014702997 0.037 -0.011624027 9.219563e-39
0.011851805 0.037 -0.015967844 9.219563e-39
0.012935111 0.037 -0.014980653 9.219563e-39
0.013374699 0.037 -0.012710759 9.219563e-39
0.022793701 0.037 -0.0019499267 9.219563e-39
0.016140223 0.037 -0.0092044994 9.219563e-39
0.019759452 0.037 -0.0052631204 9.219563e-39
0.026095891 0.037 0.01462213 9.219563e-39
0.026671486 0.037 0.015796812 9.219563e-39
0.021998959 0.037 0.0052594771 9.219563e-39
0.01461509 0.037 -0.0078792665 9.219563e-39
0.024521692 0.037 0.010444012 9.219563e-39
0.028175697 0.037 0.015077977 9.219563e-39
0.012029247 0.037 -0.012152315 9.219563e-39
0.019740188 0.037 0.0037733028 9.219563e-39
0.023735926 0.037 0.011253097 9.219563e-39
0.025801128 0.037 0.012507056 9.219563e-39
0.025242668 0.037 0.011284098 9.219563e-39
0.024189841 0.037 0.0087915724 9.219563e-39
0.015868997 0.037 -0.0050483239 9.219563e-39
0.023141326 0.037 0.008825493 9.219563e-39
0.026737541 0.037 0.018057819 9.219563e-39
0.022920128 0.037 0.0061601624 9.219563e-39
0.021017654 0.037 0.0046787001 9.219563e-39
0.02695947 0.037 0.013509705 9.219563e-39
0.020416601 0.037 0.0022989719 9.219563e-39
0.023511443 0.037 0.0072004809 9.219563e-39
0.018833773 0.037 0.0016607867 9.219563e-39
0.017899361 0.037 -0.0019181614 9.219563e-39
0.023085048 0.037 0.010397705 9.219563e-39
0.024471924 0.037 0.012313342 9.219563e-39
0.01897528 0.037 0.00042855582 9.219563e-39
0.021809721 0.037 0.0065124156 9.219563e-39
0.021025334 0.037 0.0034817944 9.219563e-39
0.014962081 0.037 -0.0062064906 9.219563e-39
0.012035973 0.037 -0.011023838 9.219563e-39
0.013327798 0.037 -0.0071622864 9.219563e-39
0.017300602 0.037 -0.00084243366 9.219563e-39
0.025602879 0.037 0.016130876 9.219563e-39
0.01034862 0.037 -0.013637272 9.219563e-39
0.015606412 0.037 -0.0030215436 9.219563e-39
0.010957636 0.037 -0.012205807 9.219563e-39
0.017738326 0.037 0.0014617536 9.219563e-39
0.020745413 0.037 0.0068067191 9.219563e-39
0.010089199 0.037 -0.011265229 9.219563e-39
0.024914388 0.037 0.014698121 9.219563e-39
0.021684412 0.037 0.008333507 9.219563e-39
0.0092212604 0.037 -0.014930726 9.219563e-39
0.019739501 0.037 0.0049252636 9.219563e-39
0.018789472 0.037 0.0028508601 9.219563e-39
0.016130863 0.037 -0.00081695814 9.219563e-39
0.012880298 0.037 -0.00836726 9.219563e-39
0.01872804 0.037 -0.0085503133 9.219563e-39
0.030346759 0.037 0.0036159214 9.219563e-39
0.031126222 0.037 0.0058552073 9.219563e-39
0.027794056 0.037 0.0015870098 9.219563e-39
0.027176512 0.037 0.0032980933 9.219563e-39
0.023368848 0.037 -0.0042599258 9.219563e-39
0.028887656 0.037 0.0050242878 9.219563e-39
0.025800217 0.037 0.00096259039 9.219563e-39
0.022195201 0.037 -0.0035201758 9.219563e-39
0.024222 0.037 -0.0017825589 9.219563e-39
0.020099007 0.037 -0.0075058728 9.219563e-39
0.018034564 0.037 -0.010052348 9.219563e-39
0.029362846 0.037 0.0063192211 9.219563e-39
0.030033428 0.037 0.0053201173 9.219563e-39
0.023667268 0.037 -0.002691482 9.219563e-39
0.028224388 0.037 0.0038071026 9.219563e-39
0.028976377 0.037 0.0026707738 9.219563e-39
0.025342235 0.037 -0.00082335685 9.219563e-39
0.021345785 0.037 -0.0054708915 9.219563e-39
0.031833634 0.037 0.0077852891 9.219563e-39
0.023346709 0.037 -0.013762585 9.219563e-39
0.01822087 0.037 -0.020513801 9.219563e-39
0.024002682 0.037 -0.010425183 9.219563e-39
0.026072789 0.037 -0.0058530155 9.219563e-39
0.025725104 0.037 -0.0079056993 9.219563e-39
0.020158108 0.037 -0.020339571 9.219563e-39
0.019117843 0.037 -0.021104736 9.219563e-39
0.027817881 0.037 -0.0029694454 9.219563e-39
0.020590471 0.037 -0.018882027 9.219563e-39
0.018649571 0.037 -0.022230124 9.219563e-39
0.029449761 0.037 -0.0002079374 9.219563e-39
0.024649864 0.037 -0.0092431447 9.219563e-39
0.021734685 0.037 -0.017122682 9.219563e-39
0.022845846 0.037 -0.012383961 9.219563e-39
0.021528454 0.037 -0.015176979 9.219563e-39
0.0194795 0.037 -0.02324494 9.219563e-39
0.027949832 0.037 -0.0043131942 9.219563e-39
0.020887701 0.037 -0.023048762 9.219563e-39
0.029144136 0.037 -0.0020802752 9.219563e-39
0.027591582 0.037 -0.0056311158 9.219563e-39
0.022864571 0.037 -0.015093997 9.219563e-39
0.023382436 0.037 -0.016247839 9.219563e-39
0.024484083 0.037 -0.012414794 9.219563e-39
0.022313071 0.037 -0.016121151 9.219563e-39
0.022683838 0.037 -0.017683895 9.219563e-39
0.02408498 0.037 -0.01526983 9.219563e-39
0.019709542 0.037 -0.022061285 9.219563e-39
0.026258687 0.037 -0.0090399124 9.219563e-39
0.031583395 0.037 0.0038940811 9.219563e-39
0.025475757 0.037 -0.010687214 9.219563e-39
0.021114841 0.037 -0.013710908 9.219563e-39
0.01951096 0.037 -0.016023807 9.219563e-39
0.027936088 0.037 -0.001829839 9.219563e-39
0.022945689 0.037 -0.01097047 9.219563e-39
0.023698341 0.037 -0.0085713631 9.219563e-39
0.016955892 0.037 -0.020414636 9.219563e-39
0.024967143 0.037 -0.0070212614 9.219563e-39
0.032024138 0.037 0.0052111247 9.219563e-39
0.019221071 0.037 -0.017923579 9.219563e-39
0.028614193 0.037 -0.00087717135 9.219563e-39
0.018202113 0.037 -0.019213798 9.219563e-39
0.026475452 0.037 -0.0040437584 9.219563e-39
0.018509276 0.037 -0.016859718 9.219563e-39
0.020921107 0.037 -0.0096145989 9.219563e-39
0.021902502 0.037 -0.010167083 9.219563e-39
0.022467069 0.037 -0.0092182523 9.219563e-39
0.023080558 0.037 -0.0070228465 9.219563e-39
0.020368231 0.037 -0.012418504 9.219563e-39
0.022320768 0.037 -0.0081403507 9.219563e-39
0.018875407 0.037 -0.015099585 9.219563e-39
0.019403072 0.037 -0.013939253 9.219563e-39
0.021225614 0.037 -0.011210102 9.219563e-39
0.024606338 0.037 -0.0050558075 9.219563e-39
0.026475152 0.037 -0.0026033472 9.219563e-39
0.016764119 0.037 -0.016325068 9.219563e-39
0.017598242 0.037 -0.015107024 9.219563e-39
0.029192414 0.037 0.0013288733 9.219563e-39
0.016509542 0.037 -0.018993134 9.219563e-39
0.016596554 0.037 -0.017442001 9.219563e-39
0.028250594 0.037 0.00029607164 9.219563e-39
0.014779692 0.037 -0.018137986 9.219563e-39
0.0166703 0.037 -0.014258824 9.219563e-39
0.012917327 0.037 -0.016229233 9.219563e-39
0.025449494 0.037 -0.0020522287 9.219563e-39
0.024700442 0.037 -0.003914556 9.219563e-39
0.017334731 0.037 -0.013324729 9.219563e-39
0.020816175 0.037 -0.00847652 9.219563e-39
0.018810397 0.037 -0.011900622 9.219563e-39
0.016120311 0.037 -0.015203235 9.219563e-39
0.019025475 0.037 -0.010708851 9.219563e-39
0.021928629 0.037 -0.0066982699 9.219563e-39
0.014128325 0.037 -0.017030403 9.219563e-39
0.01606445 0.037 -0.012804135 9.219563e-39
0.014335658 0.037 -0.015422542 9.219563e-39
0.015551432 0.037 -0.013893412 9.219563e-39
0.017428353 0.037 -0.012111828 9.219563e-39
0.015110319 0.037 -0.01614153 9.219563e-39
0.019778354 0.037 -0.0089252004 9.219563e-39
0.023585636 0.037 -0.0055444115 9.219563e-39
0.027328029 0.037 -0.0003048293 9.219563e-39
0.032247901 0.037 -0.04885285 9.219563e-39
0.03792125 0.037 -0.051199574 9.219563e-39
0.035547912 0.037 -0.051669423 9.219563e-39
0.034063209 0.037 -0.049720395 9.219563e-39
0.039290324 0.037 -0.053508069 9.219563e-39
0.030495325 0.037 -0.048243206 9.219563e-39
0.03903351 0.037 -0.052223563 9.219563e-39
0.027539935 0.037 -0.048176572 9.219563e-39
0.032641672 0.037 -0.050119471 9.219563e-39
0.0368261 0.037 -0.049868934 9.219563e-39
0.022033541 0.037 -0.044918608 9.219563e-39
0.027442899 0.037 -0.046704445 9.219563e-39
0.026022794 0.037 -0.046927143 9.219563e-39
0.041564126 0.037 -0.05328995 9.219563e-39
0.024542745 0.037 -0.046314154 9.219563e-39
0.035505496 0.037 -0.050378937 9.219563e-39
0.031093858 0.037 -0.049197435 9.219563e-39
0.0293341 0.037 -0.048563097 9.219563e-39
0.040814277 0.037 -0.052522834 9.219563e-39
0.038045239 0.037 -0.053326432 9.219563e-39
0.04156661 0.037 -0.054864597 9.219563e-39
0.036870867 0.037 -0.051175751 9.219563e-39
0.035330124 0.037 -0.049328737 9.219563e-39
0.041146602 0.037 -0.051322572 9.219563e-39
0.036273874 0.037 -0.052460589 9.219563e-39
0.039236169 0.037 -0.050874207 9.219563e-39
0.042727105 0.037 -0.052976772 9.219563e-39
0.020853391 0.037 -0.047050383 9.219563e-39
0.020033525 0.037 -0.045130007 9.219563e-39
0.023040473 0.037 -0.047782216 9.219563e-39
0.021078996 0.037 -0.045766648 9.219563e-39
0.032954995 0.037 -0.051351029 9.219563e-39
0.027682768 0.037 -0.049782172 9.219563e-39
0.023386847 0.037 -0.046637096 9.219563e-39
0.024915256 0.037 -0.047339208 9.219563e-39
0.026199156 0.037 -0.048274592 9.219563e-39
0.034147512 0.037 -0.051845826 9.219563e-39
0.029452892 0.037 -0.050404005 9.219563e-39
0.026348943 0.037 -0.055428393 9.219563e-39
0.030898018 0.037 -0.057716344 9.219563e-39
0.027780395 0.037 -0.055894013 9.219563e-39
0.020962575 0.037 -0.05187064 9.219563e-39
0.029146548 0.037 -0.056872308 9.219563e-39
0.019764442 0.037 -0.05179951 9.219563e-39
0.025050472 0.037 -0.05398554 9.219563e-39
0.025287835 0.037 -0.05523894 9.219563e-39
0.023914708 0.037 -0.053785402 9.219563e-39
0.034319691 0.037 -0.060254928 9.219563e-39
0.02984341 0.037 -0.058033086 9.219563e-39
0.018844277 0.037 -0.050530728 9.219563e-39
0.016972151 0.037 -0.050177906 9.219563e-39
0.023296772 0.037 -0.052592516 9.219563e-39
0.038656849 0.037 -0.063225016 9.219563e-39
0.021943245 0.037 -0.052934207 9.219563e-39
0.029534677 0.037 -0.060399964 9.219563e-39
0.040621743 0.037 -0.065750144 9.219563e-39
0.032453604 0.037 -0.059969906 9.219563e-39
0.032610402 0.037 -0.062521271 9.219563e-39
0.039356526 0.037 -0.068001233 9.219563e-39
0.027117832 0.037 -0.056977525 9.219563e-39
0.034887206 0.037 -0.063329145 9.219563e-39
0.023339059 0.037 -0.05514824 9.219563e-39
0.027284568 0.037 -0.058290258 9.219563e-39
0.037640266 0.037 -0.066233702 9.219563e-39
0.030704973 0.037 -0.059491877 9.219563e-39
0.028904811 0.037 -0.058775362 9.219563e-39
0.036525384 0.037 -0.066293433 9.219563e-39
0.039554477 0.037 -0.066695675 9.219563e-39
0.040561851 0.037 -0.068859398 9.219563e-39
0.030647598 0.037 -0.0607135 9.219563e-39
0.036469713 0.037 -0.064497873 9.219563e-39
0.04088391 0.037 -0.066985719 9.219563e-39
0.036935687 0.037 -0.062501252 9.219563e-39
0.039724149 0.037 -0.065075703 9.219563e-39
0.020401306 0.037 -0.053014573 9.219563e-39
0.025213381 0.037 -0.056520153 9.219563e-39
0.032439325 0.037 -0.061299119 9.219563e-39
0.038105004 0.037 -0.064995818 9.219563e-39
0.034051906 0.037 -0.061775047 9.219563e-39
0.035851255 0.037 -0.062513299 9.219563e-39
0.033758551 0.037 -0.063777171 9.219563e-39
0.035061784 0.037 -0.065329671 9.219563e-39
0.021100255 0.037 -0.054017216 9.219563e-39
0.023861021 0.037 -0.056114588 9.219563e-39
0.028378218 0.037 -0.063065618 9.219563e-39
0.029995494 0.037 -0.06406267 9.219563e-39
0.025072128 0.037 -0.057832938 9.219563e-39
0.033877671 0.037 -0.065863706 9.219563e-39
0.034558833 0.037 -0.067029297 9.219563e-39
0.031957645 0.037 -0.064593263 9.219563e-39
0.032328751 0.037 -0.065892428 9.219563e-39
0.022830188 0.037 -0.056851599 9.219563e-39
0.036782283 0.037 -0.068741359 9.219563e-39
0.032621637 0.037 -0.063661419 9.219563e-39
0.037696499 0.037 -0.072099097 9.219563e-39
0.03869528 0.037 -0.073555753 9.219563e-39
0.027049098 0.037 -0.060558837 9.219563e-39
0.038124479 0.037 -0.068065442 9.219563e-39
0.035505712 0.037 -0.068872578 9.219563e-39
0.037880611 0.037 -0.069234997 9.219563e-39
0.029673859 0.037 -0.062253978 9.219563e-39
0.038304009 0.037 -0.070273645 9.219563e-39
0.025051573 0.037 -0.059601154 9.219563e-39
0.035929043 0.037 -0.070889726 9.219563e-39
0.017238285 0.037 -0.051347509 9.219563e-39
0.039089885 0.037 -0.071039155 9.219563e-39
0.026243571 0.037 -0.058822341 9.219563e-39
0.03103081 0.037 -0.062752485 9.219563e-39
0.019291382 0.037 -0.053356167 9.219563e-39
0.036241408 0.037 -0.067415632 9.219563e-39
0.028165948 0.037 -0.059972696 9.219563e-39
0.027744381 0.037 -0.061476059 9.219563e-39
0.039328635 0.037 -0.069150887 9.219563e-39
0.033170443 0.037 -0.064732142 9.219563e-39
0.034201358 0.037 -0.068128698 9.219563e-39
0.029517205 0.037 -0.065540448 9.219563e-39
0.016042788 0.037 -0.051850136 9.219563e-39
0.021469552 0.037 -0.055927433 9.219563e-39
0.032566804 0.037 -0.067675017 9.219563e-39
0.019560579 0.037 -0.055412918 9.219563e-39
0.016326101 0.037 -0.053099621 9.219563e-39
0.018438719 0.037 -0.054020863 9.219563e-39
0.020269956 0.037 -0.056477215 9.219563e-39
0.031197144 0.037 -0.066480182 9.219563e-39
0.026657205 0.037 -0.0620391 9.219563e-39
0.021506788 0.037 -0.057261039 9.219563e-39
0.018461617 0.037 -0.055504452 9.219563e-39
0.017786862 0.037 -0.052478515 9.219563e-39
0.01717565 0.037 -0.053918198 9.219563e-39
0.023245228 0.037 -0.059420601 9.219563e-39
0.014957432 0.037 -0.051624253 9.219563e-39
0.023212578 0.037 -0.058124162 9.219563e-39
0.028449949 0.037 -0.054833315 9.219563e-39
0.025742199 0.037 -0.052681644 9.219563e-39
0.037489835 0.037 -0.061161783 9.219563e-39
0.022879336 0.037 -0.051448241 9.219563e-39
0.040489651 0.037 -0.063557312 9.219563e-39
0.035696 0.037 -0.059368163 9.219563e-39
0.040905043 0.037 -0.064705737 9.219563e-39
0.041501958 0.037 -0.060590055 9.219563e-39
0.02146177 0.037 -0.050806507 9.219563e-39
0.035509545 0.037 -0.057748944 9.219563e-39
0.04174412 0.037 -0.063827351 9.219563e-39
0.039805382 0.037 -0.060194287 9.219563e-39
0.036130279 0.037 -0.06107929 9.219563e-39
0.04059311 0.037 -0.062041137 9.219563e-39
0.03479062 0.037 -0.058677331 9.219563e-39
0.0303542 0.037 -0.056712151 9.219563e-39
0.019782038 0.037 -0.049699549 9.219563e-39
0.033304732 0.037 -0.056369781 9.219563e-39
0.034167845 0.037 -0.057455771 9.219563e-39
0.038055155 0.037 -0.058648761 9.219563e-39
0.038663365 0.037 -0.060643837 9.219563e-39
0.031749245 0.037 -0.05649684 9.219563e-39
0.030591108 0.037 -0.055556338 9.219563e-39
0.027845701 0.037 -0.053946897 9.219563e-39
0.041685153 0.037 -0.062726393 9.219563e-39
0.032656986 0.037 -0.057271313 9.219563e-39
0.026247077 0.037 -0.054225776 9.219563e-39
0.029491954 0.037 -0.055471364 9.219563e-39
0.036955785 0.037 -0.058952995 9.219563e-39
0.032780688 0.037 -0.058555841 9.219563e-39
0.039595343 0.037 -0.061531421 9.219563e-39
0.024350122 0.037 -0.052646797 9.219563e-39
0.039523914 0.037 -0.059069823 9.219563e-39
0.025198875 0.037 -0.051094882 9.219563e-39
0.035050731 0.037 -0.056542046 9.219563e-39
0.030933822 0.037 -0.054106969 9.219563e-39
0.021914961 0.037 -0.049514063 9.219563e-39
0.029270688 0.037 -0.053754561 9.219563e-39
0.023927266 0.037 -0.050575867 9.219563e-39
0.020777673 0.037 -0.048366625 9.219563e-39
0.019476067 0.037 -0.047668289 9.219563e-39
0.026346324 0.037 -0.0513101 9.219563e-39
0.027104851 0.037 -0.052144069 9.219563e-39
0.02296292 0.037 -0.049912423 9.219563e-39
0.031745445 0.037 -0.055147465 9.219563e-39
-0.030099336 0.037 -0.07809218 9.219563e-39
-0.028779037 0.037 -0.080103084 9.219563e-39
-0.02864274 0.037 -0.077139437 9.219563e-39
-0.020828811 0.037 -0.068189211 9.219563e-39
-0.025406349 0.037 -0.075759321 9.219563e-39
-0.019604551 0.037 -0.066710122 9.219563e-39
-0.023396084 0.037 -0.072332203 9.219563e-39
-0.0298407 0.037 -0.082089901 9.219563e-39
-0.02622118 0.037 -0.077896178 9.219563e-39
-0.027742021 0.037 -0.075411566 9.219563e-39
-0.031674828 0.037 -0.079658106 9.219563e-39
-0.026438041 0.037 -0.075367101 9.219563e-39
-0.025357943 0.037 -0.074160375 9.219563e-39
-0.017575322 0.037 -0.063020155 9.219563e-39
-0.02916885 0.037 -0.081248522 9.219563e-39
-0.031606387 0.037 -0.083606631 9.219563e-39
-0.032433152 0.037 -0.081980832 9.219563e-39
-0.026996603 0.037 -0.079179913 9.219563e-39
-0.020942243 0.037 -0.070073061 9.219563e-39
-0.015440717 0.037 -0.061391767 9.219563e-39
-0.026449291 0.037 -0.076662473 9.219563e-39
-0.023559703 0.037 -0.070936136 9.219563e-39
-0.018529432 0.037 -0.066150926 9.219563e-39
-0.017112618 0.037 -0.064050987 9.219563e-39
-0.01662845 0.037 -0.062369727 9.219563e-39
-0.030596355 0.037 -0.079470538 9.219563e-39
-0.031269368 0.037 -0.082508683 9.219563e-39
-0.033301622 0.037 -0.081264846 9.219563e-39
-0.027868642 0.037 -0.078462772 9.219563e-39
-0.031550188 0.037 -0.081366912 9.219563e-39
-0.021763308 0.037 -0.071422867 9.219563e-39
-0.024115456 0.037 -0.073459581 9.219563e-39
-0.021706784 0.037 -0.069101371 9.219563e-39
-0.029413575 0.037 -0.079213589 9.219563e-39
-0.02553826 0.037 -0.072993301 9.219563e-39
-0.023159033 0.037 -0.069719687 9.219563e-39
-0.024811624 0.037 -0.071879752 9.219563e-39
-0.02568556 0.037 -0.079710253 9.219563e-39
-0.021929031 0.037 -0.076845415 9.219563e-39
-0.025323892 0.037 -0.083237715 9.219563e-39
-0.0151192 0.037 -0.06340652 9.219563e-39
-0.022836097 0.037 -0.074301131 9.219563e-39
-0.021821711 0.037 -0.073606223 9.219563e-39
-0.020652004 0.037 -0.072143264 9.219563e-39
-0.023381092 0.037 -0.075526185 9.219563e-39
-0.017436707 0.037 -0.065426059 9.219563e-39
-0.017728291 0.037 -0.068310842 9.219563e-39
-0.012301842 0.037 -0.057657581 9.219563e-39
-0.013347199 0.037 -0.059453219 9.219563e-39
-0.020115441 0.037 -0.073769659 9.219563e-39
-0.029873936 0.037 -0.084748551 9.219563e-39
-0.023708303 0.037 -0.079272129 9.219563e-39
-0.019686228 0.037 -0.069787756 9.219563e-39
-0.022704808 0.037 -0.078800738 9.219563e-39
-0.024644956 0.037 -0.076578774 9.219563e-39
-0.027118558 0.037 -0.086186938 9.219563e-39
-0.022999838 0.037 -0.077317521 9.219563e-39
-0.011299297 0.037 -0.056005862 9.219563e-39
-0.022202048 0.037 -0.075231373 9.219563e-39
-0.026265718 0.037 -0.081779845 9.219563e-39
-0.017577568 0.037 -0.066819362 9.219563e-39
-0.024939999 0.037 -0.081580974 9.219563e-39
-0.018850656 0.037 -0.068098232 9.219563e-39
-0.027879814 0.037 -0.083056107 9.219563e-39
-0.010685645 0.037 -0.0550633 9.219563e-39
-0.026693992 0.037 -0.080270737 9.219563e-39
-0.020230895 0.037 -0.071060173 9.219563e-39
-0.024669226 0.037 -0.080168813 9.219563e-39
-0.026665766 0.037 -0.08336217 9.219563e-39
-0.014462285 0.037 -0.060782559 9.219563e-39
-0.024203869 0.037 -0.078275107 9.219563e-39
-0.028091893 0.037 -0.081922196 9.219563e-39
-0.026898433 0.037 -0.084827445 9.219563e-39
-0.019096628 0.037 -0.070789501 9.219563e-39
-0.019818783 0.037 -0.068684153 9.219563e-39
-0.028149011 0.037 -0.084171139 9.219563e-39
-0.028553555 0.037 -0.085580222 9.219563e-39
-0.017896989 0.037 -0.060633793 9.219563e-39
-0.014583411 0.037 -0.058971331 9.219563e-39
-0.016608564 0.037 -0.061226178 9.219563e-39
-0.021454576 0.037 -0.065922283 9.219563e-39
-0.025019471 0.037 -0.070755892 9.219563e-39
-0.01291086 0.037 -0.055243559 9.219563e-39
-0.019618683 0.037 -0.064479813 9.219563e-39
-0.013209538 0.037 -0.056795288 9.219563e-39
-0.015958291 0.037 -0.058639579 9.219563e-39
-0.024307711 0.037 -0.069894284 9.219563e-39
-0.014823438 0.037 -0.057674985 9.219563e-39
-0.022995027 0.037 -0.068329044 9.219563e-39
-0.021951273 0.037 -0.067797713 9.219563e-39
-0.02969927 0.037 -0.076876476 9.219563e-39
-0.026893297 0.037 -0.073560447 9.219563e-39
-0.012666976 0.037 -0.053958617 9.219563e-39
-0.016659226 0.037 -0.059787132 9.219563e-39
-0.018891163 0.037 -0.063298158 9.219563e-39
-0.017768575 0.037 -0.069677234 9.219563e-39
-0.020852869 0.037 -0.076334089 9.219563e-39
-0.0098259971 0.037 -0.057513561 9.219563e-39
-0.011013555 0.037 -0.057811704 9.219563e-39
-0.016453177 0.037 -0.068087272 9.219563e-39
-0.012660963 0.037 -0.06158112 9.219563e-39
-0.015775774 0.037 -0.066106737 9.219563e-39
-0.012210043 0.037 -0.060585398 9.219563e-39
-0.017939901 0.037 -0.070876338 9.219563e-39
-0.013443787 0.037 -0.062526837 9.219563e-39
-0.008683986 0.037 -0.056309327 9.219563e-39
-0.014552739 0.037 -0.065672904 9.219563e-39
-0.012057258 0.037 -0.058945462 9.219563e-39
-0.019328607 0.037 -0.072978355 9.219563e-39
-0.032360941 0.037 -0.074451752 9.219563e-39
-0.034928117 0.037 -0.079115354 9.219563e-39
-0.030367574 0.037 -0.072383925 9.219563e-39
-0.033299673 0.037 -0.077285498 9.219563e-39
-0.020980882 0.037 -0.063420914 9.219563e-39
-0.033516735 0.037 -0.07614734 9.219563e-39
-0.026301339 0.037 -0.070600316 9.219563e-39
-0.024662742 0.037 -0.067787327 9.219563e-39
-0.019954715 0.037 -0.062418249 9.219563e-39
-0.034103703 0.037 -0.080248296 9.219563e-39
-0.034235753 0.037 -0.078294091 9.219563e-39
-0.028690312 0.037 -0.071165904 9.219563e-39
-0.026262375 0.037 -0.068963639 9.219563e-39
-0.030473072 0.037 -0.073860131 9.219563e-39
-0.032777235 0.037 -0.080016285 9.219563e-39
-0.017263472 0.037 -0.058797177 9.219563e-39
-0.027153293 0.037 -0.071865879 9.219563e-39
-0.018675359 0.037 -0.061468966 9.219563e-39
-0.029788569 0.037 -0.071190283 9.219563e-39
-0.022858677 0.037 -0.066745728 9.219563e-39
-0.0299219 0.037 -0.074838571 9.219563e-39
-0.030460153 0.037 -0.075969227 9.219563e-39
-0.024614966 0.037 -0.066608399 9.219563e-39
-0.025752909 0.037 -0.06743215 9.219563e-39
-0.029334374 0.037 -0.073315106 9.219563e-39
-0.014336061 0.037 -0.055500347 9.219563e-39
-0.027909702 0.037 -0.069802746 9.219563e-39
-0.031914938 0.037 -0.076573588 9.219563e-39
-0.021805059 0.037 -0.064297892 9.219563e-39
-0.032213796 0.037 -0.07858137 9.219563e-39
-0.027933834 0.037 -0.073840812 9.219563e-39
-0.032409407 0.037 -0.075613253 9.219563e-39
-0.016079796 0.037 -0.057059001 9.219563e-39
-0.035234485 0.037 -0.077122882 9.219563e-39
-0.023085605 0.037 -0.064322971 9.219563e-39
0.040617663 0.037 -0.059225775 9.219563e-39
0.036691457 0.037 -0.053727996 9.219563e-39
0.031882178 0.037 -0.053541902 9.219563e-39
0.021728441 0.037 -0.047833256 9.219563e-39
0.03737849 0.037 -0.05621291 9.219563e-39
0.033440143 0.037 -0.054352675 9.219563e-39
0.027330909 0.037 -0.050859563 9.219563e-39
0.039575242 0.037 -0.05747626 9.219563e-39
0.025566937 0.037 -0.049295638 9.219563e-39
0.03006557 0.037 -0.052262407 9.219563e-39
0.031303547 0.037 -0.052562006 9.219563e-39
0.036703579 0.037 -0.057030246 9.219563e-39
0.028572131 0.037 -0.051008366 9.219563e-39
0.041880682 0.037 -0.056407697 9.219563e-39
0.035399605 0.037 -0.054733653 9.219563e-39
0.040565468 0.037 -0.056641597 9.219563e-39
0.023666777 0.037 -0.048702195 9.219563e-39
0.042530991 0.037 -0.057302933 9.219563e-39
0.040584497 0.037 -0.058030218 9.219563e-39
0.038384356 0.037 -0.057375208 9.219563e-39
0.03643075 0.037 -0.055309765 9.219563e-39
0.030945748 0.037 -0.051389605 9.219563e-39
0.038584687 0.037 -0.055367205 9.219563e-39
0.03236489 0.037 -0.052506268 9.219563e-39
0.042496074 0.037 -0.0584636 9.219563e-39
0.04030937 0.037 -0.055474877 9.219563e-39
0.033534382 0.037 -0.05309983 9.219563e-39
0.016046494 0.037 -0.059980031 9.219563e-39
0.021964461 0.037 -0.067810617 9.219563e-39
0.021414142 0.037 -0.066419803 9.219563e-39
0.013165881 0.037 -0.0566197 9.219563e-39
0.017699283 0.037 -0.061158497 9.219563e-39
0.023305284 0.037 -0.06900958 9.219563e-39
0.029981369 0.037 -0.076757424 9.219563e-39
0.018325761 0.037 -0.062657498 9.219563e-39
0.01959322 0.037 -0.063631535 9.219563e-39
0.014309336 0.037 -0.058761854 9.219563e-39
0.014796341 0.037 -0.057284258 9.219563e-39
0.025164321 0.037 -0.071621656 9.219563e-39
0.011408164 0.037 -0.055407062 9.219563e-39
0.026640542 0.037 -0.07253994 9.219563e-39
0.010746619 0.037 -0.054445036 9.219563e-39
0.02453381 0.037 -0.070480712 9.219563e-39
0.013946601 0.037 -0.05579555 9.219563e-39
0.012092145 0.037 -0.056266576 9.219563e-39
0.012359153 0.037 -0.054555666 9.219563e-39
0.030121498 0.037 -0.079051331 9.219563e-39
0.025241474 0.037 -0.073529318 9.219563e-39
0.026080916 0.037 -0.076790012 9.219563e-39
0.030567281 0.037 -0.080194756 9.219563e-39
0.017766722 0.037 -0.064395621 9.219563e-39
0.027081011 0.037 -0.077184655 9.219563e-39
0.016523723 0.037 -0.063193589 9.219563e-39
0.01918092 0.037 -0.066650167 9.219563e-39
0.031879548 0.037 -0.082530953 9.219563e-39
0.026038375 0.037 -0.075292945 9.219563e-39
0.028104052 0.037 -0.0795184 9.219563e-39
0.019991007 0.037 -0.065856457 9.219563e-39
0.030613182 0.037 -0.081516199 9.219563e-39
0.02920978 0.037 -0.078041337 9.219563e-39
0.021844557 0.037 -0.069956593 9.219563e-39
0.016066514 0.037 -0.061365504 9.219563e-39
0.020415433 0.037 -0.06762667 9.219563e-39
0.013143407 0.037 -0.05828752 9.219563e-39
0.024295086 0.037 -0.074599244 9.219563e-39
0.028502829 0.037 -0.081248082 9.219563e-39
0.032397844 0.037 -0.081360281 9.219563e-39
0.018473195 0.037 -0.065567233 9.219563e-39
0.02079183 0.037 -0.068675764 9.219563e-39
0.023473529 0.037 -0.070465252 9.219563e-39
0.027669387 0.037 -0.074883088 9.219563e-39
0.028203985 0.037 -0.077413402 9.219563e-39
0.031827074 0.037 -0.079565376 9.219563e-39
0.026602928 0.037 -0.074121267 9.219563e-39
0.023419702 0.037 -0.072088473 9.219563e-39
0.028705608 0.037 -0.075759523 9.219563e-39
0.030668411 0.037 -0.082852483 9.219563e-39
0.023892501 0.037 -0.073189303 9.219563e-39
0.015097301 0.037 -0.064751528 9.219563e-39
0.016101265 0.037 -0.067271188 9.219563e-39
0.010038286 0.037 -0.057862893 9.219563e-39
0.017354229 0.037 -0.071048982 9.219563e-39
0.018740963 0.037 -0.071826957 9.219563e-39
0.01639745 0.037 -0.068389475 9.219563e-39
0.011254855 0.037 -0.058172982 9.219563e-39
0.012909753 0.037 -0.062257677 9.219563e-39
0.0090738926 0.037 -0.05554416 9.219563e-39
0.015692336 0.037 -0.065889999 9.219563e-39
0.018870629 0.037 -0.073607162 9.219563e-39
0.0094193583 0.037 -0.056776129 9.219563e-39
0.020835966 0.037 -0.075480469 9.219563e-39
0.025553122 0.037 -0.084954374 9.219563e-39
0.02033207 0.037 -0.074389845 9.219563e-39
0.011709811 0.037 -0.05960596 9.219563e-39
0.012987524 0.037 -0.060847085 9.219563e-39
0.014500709 0.037 -0.065836005 9.219563e-39
0.010526715 0.037 -0.056149658 9.219563e-39
0.025323804 0.037 -0.080340289 9.219563e-39
0.026963083 0.037 -0.080822453 9.219563e-39
0.021475658 0.037 -0.073762491 9.219563e-39
0.021195352 0.037 -0.071453176 9.219563e-39
0.030155053 0.037 -0.085324585 9.219563e-39
0.021948541 0.037 -0.072371721 9.219563e-39
0.019999079 0.037 -0.069497347 9.219563e-39
0.028482964 0.037 -0.085887745 9.219563e-39
0.026390884 0.037 -0.083269663 9.219563e-39
0.020127619 0.037 -0.07067553 9.219563e-39
0.02274894 0.037 -0.073574238 9.219563e-39
0.023024002 0.037 -0.078596547 9.219563e-39
0.021999802 0.037 -0.076462299 9.219563e-39
0.014960132 0.037 -0.062923759 9.219563e-39
0.025043616 0.037 -0.082683034 9.219563e-39
0.022445841 0.037 -0.075328931 9.219563e-39
0.024952993 0.037 -0.076645061 9.219563e-39
0.025485175 0.037 -0.081473611 9.219563e-39
0.027125908 0.037 -0.08199928 9.219563e-39
0.013793134 0.037 -0.060167931 9.219563e-39
0.026741363 0.037 -0.085345529 9.219563e-39
0.023460759 0.037 -0.076794632 9.219563e-39
0.024589742 0.037 -0.077859856 9.219563e-39
0.024248492 0.037 -0.079959527 9.219563e-39
0.025548199 0.037 -0.078468226 9.219563e-39
0.018729122 0.037 -0.068545006 9.219563e-39
0.016220836 0.037 -0.064628936 9.219563e-39
0.018758122 0.037 -0.070435666 9.219563e-39
0.020611864 0.037 -0.072412252 9.219563e-39
0.014730562 0.037 -0.061411615 9.219563e-39
0.027406614 0.037 -0.087708317 9.219563e-39
0.01692115 0.037 -0.065924957 9.219563e-39
0.027677827 0.037 -0.083110683 9.219563e-39
0.02811208 0.037 -0.084545255 9.219563e-39
0.026617756 0.037 -0.078959443 9.219563e-39
0.024159975 0.037 -0.075876065 9.219563e-39
0.019545594 0.037 -0.072586581 9.219563e-39
0.023881087 0.037 -0.080983177 9.219563e-39
0.01758163 0.037 -0.067694373 9.219563e-39
0.029565224 0.037 -0.083668776 9.219563e-39
0.027401166 0.037 -0.086423919 9.219563e-39
0.022183359 0.037 -0.064304166 9.219563e-39
0.032342218 0.037 -0.074868664 9.219563e-39
0.018662198 0.037 -0.060159452 9.219563e-39
0.030793881 0.037 -0.074351959 9.219563e-39
0.016448952 0.037 -0.058383822 9.219563e-39
0.029077664 0.037 -0.071720533 9.219563e-39
0.032352515 0.037 -0.076700419 9.219563e-39
0.021445209 0.037 -0.063110001 9.219563e-39
0.034149557 0.037 -0.08011321 9.219563e-39
0.026490113 0.037 -0.071280479 9.219563e-39
0.030603046 0.037 -0.073219977 9.219563e-39
0.025574928 0.037 -0.069245398 9.219563e-39
0.0160171 0.037 -0.057139438 9.219563e-39
0.033589456 0.037 -0.075586639 9.219563e-39
0.029005053 0.037 -0.070422195 9.219563e-39
0.033692453 0.037 -0.077018462 9.219563e-39
0.026729928 0.037 -0.068551175 9.219563e-39
0.027471561 0.037 -0.069904588 9.219563e-39
0.017626576 0.037 -0.059611484 9.219563e-39
0.023250446 0.037 -0.066763096 9.219563e-39
0.024507223 0.037 -0.066256382 9.219563e-39
0.032950189 0.037 -0.079685368 9.219563e-39
0.025742179 0.037 -0.067413732 9.219563e-39
0.023061488 0.037 -0.065532632 9.219563e-39
0.029411176 0.037 -0.072944894 9.219563e-39
0.021926977 0.037 -0.065398678 9.219563e-39
0.015068791 0.037 -0.056256618 9.219563e-39
0.030056467 0.037 -0.075519018 9.219563e-39
0.024489341 0.037 -0.06744732 9.219563e-39
0.031307373 0.037 -0.075573079 9.219563e-39
0.019785766 0.037 -0.06199481 9.219563e-39
0.035728443 0.037 -0.077683717 9.219563e-39
0.031311341 0.037 -0.077175528 9.219563e-39
0.021016505 0.037 -0.064188376 9.219563e-39
0.027911266 0.037 -0.071892016 9.219563e-39
0.034986354 0.037 -0.078523092 9.219563e-39
0.031610698 0.037 -0.078298785 9.219563e-39
0.032730673 0.037 -0.078588657 9.219563e-39
0.018762026 0.037 -0.061557166 9.219563e-39
0.028263232 0.037 -0.07326071 9.219563e-39
0.023651421 0.037 -0.062939882 9.219563e-39
0.01319215 0.037 -0.05373092 9.219563e-39
0.026990052 0.037 -0.067503117 9.219563e-39
0.020948965 0.037 -0.061945073 9.219563e-39
0.016168529 0.037 -0.054709353 9.219563e-39
0.01804341 0.037 -0.058456585 9.219563e-39
0.017012997 0.037 -0.056564163 9.219563e-39
0.019711878 0.037 -0.06005061 9.219563e-39
0.015195357 0.037 -0.052940331 9.219563e-39
0.026151661 0.037 -0.066402033 9.219563e-39
0.013933729 0.037 -0.054533441 9.219563e-39
0.030258905 0.037 -0.07122425 9.219563e-39
0.032692775 0.037 -0.073724121 9.219563e-39
0.028082429 0.037 -0.068608932 9.219563e-39
0.031266704 0.037 -0.072309256 9.219563e-39
0.018188287 0.037 -0.056660186 9.219563e-39
0.024561869 0.037 -0.064364992 9.219563e-39
0.015025118 0.037 -0.054468092 9.219563e-39
0.020989221 0.037 -0.06031156 9.219563e-39
0.017247351 0.037 -0.076229215 9.219563e-39
0.007269653 0.037 -0.05602308 9.219563e-39
0.0090463208 0.037 -0.061511505 9.219563e-39
0.0083065685 0.037 -0.056661133 9.219563e-39
0.0100178 0.037 -0.059789941 9.219563e-39
0.007030685 0.037 -0.057212427 9.219563e-39
0.016811794 0.037 -0.077379525 9.219563e-39
0.0090972474 0.037 -0.058987144 9.219563e-39
0.02077974 0.037 -0.084649548 9.219563e-39
0.012991801 0.037 -0.069471642 9.219563e-39
0.013247817 0.037 -0.067483276 9.219563e-39
0.0075360248 0.037 -0.05914795 9.219563e-39
0.011886857 0.037 -0.067388467 9.219563e-39
0.012403465 0.037 -0.065223485 9.219563e-39
0.015682735 0.037 -0.072994664 9.219563e-39
0.011028438 0.037 -0.065849505 9.219563e-39
0.015375331 0.037 -0.074240334 9.219563e-39
0.010851125 0.037 -0.064156353 9.219563e-39
0.019033365 0.037 -0.081329986 9.219563e-39
0.0088342214 0.037 -0.057761461 9.219563e-39
0.0095849475 0.037 -0.062794372 9.219563e-39
0.017959256 0.037 -0.079446822 9.219563e-39
0.011001592 0.037 -0.062490854 9.219563e-39
0.0091186203 0.037 -0.060380433 9.219563e-39
0.0060144612 0.037 -0.056203008 9.219563e-39
0.01174358 0.037 -0.068739176 9.219563e-39
0.020069625 0.037 -0.089701995 9.219563e-39
0.016506501 0.037 -0.081174105 9.219563e-39
0.017130002 0.037 -0.085379936 9.219563e-39
0.010110448 0.037 -0.067343645 9.219563e-39
0.013016379 0.037 -0.070731424 9.219563e-39
0.018920174 0.037 -0.086483903 9.219563e-39
0.017689742 0.037 -0.080653399 9.219563e-39
0.013781286 0.037 -0.072274789 9.219563e-39
0.019755935 0.037 -0.087227352 9.219563e-39
0.01817058 0.037 -0.084589079 9.219563e-39
0.013579703 0.037 -0.075734966 9.219563e-39
0.01980851 0.037 -0.085129909 9.219563e-39
0.015781809 0.037 -0.079194695 9.219563e-39
0.015434962 0.037 -0.080873393 9.219563e-39
0.015046899 0.037 -0.077664159 9.219563e-39
0.020795571 0.037 -0.086527847 9.219563e-39
0.008878517 0.037 -0.06383986 9.219563e-39
0.015224203 0.037 -0.075621463 9.219563e-39
0.017493935 0.037 -0.086434841 9.219563e-39
0.012780799 0.037 -0.072872601 9.219563e-39
0.01665003 0.037 -0.07984671 9.219563e-39
0.014528332 0.037 -0.076623313 9.219563e-39
0.012781354 0.037 -0.074301742 9.219563e-39
0.017717319 0.037 -0.082377963 9.219563e-39
0.016602002 0.037 -0.082956932 9.219563e-39
0.021008004 0.037 -0.08846119 9.219563e-39
0.022593092 0.037 -0.090237327 9.219563e-39
0.01956409 0.037 -0.090950698 9.219563e-39
0.021741075 0.037 -0.091416575 9.219563e-39
0.020503312 0.037 -0.092139252 9.219563e-39
0.022566808 0.037 -0.089166433 9.219563e-39
0.019284509 0.037 -0.083254382 9.219563e-39
0.015718257 0.037 -0.076688856 9.219563e-39
0.013633826 0.037 -0.073626779 9.219563e-39
0.011148805 0.037 -0.076154433 9.219563e-39
0.0070471382 0.037 -0.060698044 9.219563e-39
0.011173689 0.037 -0.074920736 9.219563e-39
0.010346043 0.037 -0.068440281 9.219563e-39
0.015232022 0.037 -0.084983885 9.219563e-39
0.01165112 0.037 -0.072793595 9.219563e-39
0.014363731 0.037 -0.082138933 9.219563e-39
0.013975148 0.037 -0.085114725 9.219563e-39
0.015323839 0.037 -0.088781096 9.219563e-39
0.011992835 0.037 -0.077513367 9.219563e-39
0.016076025 0.037 -0.094162524 9.219563e-39
0.014291265 0.037 -0.080921561 9.219563e-39
0.013662907 0.037 -0.086219244 9.219563e-39
0.017042166 0.037 -0.090187386 9.219563e-39
0.01352364 0.037 -0.077127986 9.219563e-39
0.011181401 0.037 -0.070520408 9.219563e-39
0.0087549016 0.037 -0.065702222 9.219563e-39
0.015043329 0.037 -0.083383739 9.219563e-39
0.016397281 0.037 -0.088792056 9.219563e-39
0.01443638 0.037 -0.087792866 9.219563e-39
0.011495557 0.037 -0.071704611 9.219563e-39
0.015856793 0.037 -0.089845091 9.219563e-39
0.01884651 0.037 -0.092785716 9.219563e-39
0.014067482 0.037 -0.079120934 9.219563e-39
0.013774876 0.037 -0.083784372 9.219563e-39
0.01226149 0.037 -0.075694293 9.219563e-39
0.013101082 0.037 -0.080957241 9.219563e-39
0.015770832 0.037 -0.086045399 9.219563e-39
0.016649565 0.037 -0.093111694 9.219563e-39
0.012947046 0.037 -0.078161128 9.219563e-39
0.018369054 0.037 -0.089632832 9.219563e-39
0.015701199 0.037 -0.091929853 9.219563e-39
0.017653806 0.037 -0.088108398 9.219563e-39
0.012872473 0.037 -0.082787238 9.219563e-39
0.016516604 0.037 -0.087537833 9.219563e-39
0.016551079 0.037 -0.091165826 9.219563e-39
0.012313126 0.037 -0.079060674 9.219563e-39
0.014561916 0.037 -0.090352707 9.219563e-39
0.017686432 0.037 -0.091452204 9.219563e-39
0.010051311 0.037 -0.070682853 9.219563e-39
0.013339009 0.037 -0.087423019 9.219563e-39
0.0098982267 0.037 -0.072725929 9.219563e-39
0.011780011 0.037 -0.081907988 9.219563e-39
0.0063266316 0.037 -0.064083777 9.219563e-39
0.0055020303 0.037 -0.060975034 9.219563e-39
0.010870478 0.037 -0.077415794 9.219563e-39
0.0069371997 0.037 -0.062200416 9.219563e-39
0.0048510679 0.037 -0.057533134 9.219563e-39
0.0058465679 0.037 -0.062470071 9.219563e-39
0.014643353 0.037 -0.091603696 9.219563e-39
0.0084697865 0.037 -0.069183886 9.219563e-39
0.0083677294 0.037 -0.071747959 9.219563e-39
0.0073953373 0.037 -0.06539502 9.219563e-39
0.012848797 0.037 -0.085026301 9.219563e-39
0.005516781 0.037 -0.058706347 9.219563e-39
0.0075190146 0.037 -0.063366517 9.219563e-39
0.0045512174 0.037 -0.059372179 9.219563e-39
0.0088672461 0.037 -0.070542254 9.219563e-39
0.0078311097 0.037 -0.06714756 9.219563e-39
0.01163772 0.037 -0.080044873 9.219563e-39
0.010123904 0.037 -0.074244417 9.219563e-39
0.0062487111 0.037 -0.059772447 9.219563e-39
0.013403449 0.037 -0.064397156 9.219563e-39
0.014391484 0.037 -0.068608463 9.219563e-39
0.014981541 0.037 -0.067551702 9.219563e-39
0.016136298 0.037 -0.069900632 9.219563e-39
0.023341974 0.037 -0.086820096 9.219563e-39
0.023740306 0.037 -0.085709982 9.219563e-39
0.013328408 0.037 -0.066176832 9.219563e-39
0.012099196 0.037 -0.063784063 9.219563e-39
0.018240647 0.037 -0.07795646 9.219563e-39
0.023656199 0.037 -0.084531993 9.219563e-39
0.025358012 0.037 -0.086260833 9.219563e-39
0.020214248 0.037 -0.081906363 9.219563e-39
0.020040924 0.037 -0.077416092 9.219563e-39
0.021339519 0.037 -0.078018509 9.219563e-39
0.024485124 0.037 -0.08381322 9.219563e-39
0.023548523 0.037 -0.08213231 9.219563e-39
0.020509856 0.037 -0.083137266 9.219563e-39
0.019391201 0.037 -0.076378681 9.219563e-39
0.021987498 0.037 -0.079620905 9.219563e-39
0.022775428 0.037 -0.080381416 9.219563e-39
0.015088446 0.037 -0.069397457 9.219563e-39
0.021784447 0.037 -0.083884098 9.219563e-39
0.010927929 0.037 -0.061156027 9.219563e-39
0.022611422 0.037 -0.087916784 9.219563e-39
0.026150919 0.037 -0.08792565 9.219563e-39
0.022302859 0.037 -0.081909597 9.219563e-39
0.021212952 0.037 -0.081149876 9.219563e-39
0.020976245 0.037 -0.079032362 9.219563e-39
0.018161202 0.037 -0.07457757 9.219563e-39
0.017607611 0.037 -0.073244818 9.219563e-39
0.021941507 0.037 -0.085084021 9.219563e-39
0.023794947 0.037 -0.088086769 9.219563e-39
0.024659194 0.037 -0.087279394 9.219563e-39
0.024889389 0.037 -0.088750437 9.219563e-39
0.016559605 0.037 -0.071752451 9.219563e-39
0.01897441 0.037 -0.078762278 9.219563e-39
0.014927193 0.037 -0.070700504 9.219563e-39
0.019294407 0.037 -0.075314663 9.219563e-39
0.016522577 0.037 -0.073888592 9.219563e-39
0.019880572 0.037 -0.080498554 9.219563e-39
-0.0053101806 0.037 -0.068478167 9.219563e-39
-0.008492155 0.037 -0.095130377 9.219563e-39
-0.0076906313 0.037 -0.091499873 9.219563e-39
-0.0064341268 0.037 -0.078060336 9.219563e-39
-0.0066044256 0.037 -0.074171901 9.219563e-39
-0.0063742893 0.037 -0.088221818 9.219563e-39
-0.0097509241 0.037 -0.09349215 9.219563e-39
-0.0071673272 0.037 -0.081561126 9.219563e-39
-0.0057341917 0.037 -0.074940301 9.219563e-39
-0.0071862163 0.037 -0.079256907 9.219563e-39
-0.0074381884 0.037 -0.094232388 9.219563e-39
-0.0084719593 0.037 -0.082663447 9.219563e-39
-0.0042322781 0.037 -0.063907459 9.219563e-39
-0.0066640861 0.037 -0.093159728 9.219563e-39
-0.010502034 0.037 -0.094524831 9.219563e-39
-0.009167592 0.037 -0.087464482 9.219563e-39
-0.0076123355 0.037 -0.088225514 9.219563e-39
-0.0069337692 0.037 -0.08301267 9.219563e-39
-0.0049618781 0.037 -0.072475448 9.219563e-39
-0.0084624141 0.037 -0.084552206 9.219563e-39
-0.0054663108 0.037 -0.070184328 9.219563e-39
-0.0050400682 0.037 -0.066561013 9.219563e-39
-0.0064822733 0.037 -0.090195172 9.219563e-39
-0.0060534272 0.037 -0.083840191 9.219563e-39
-0.0058076121 0.037 -0.07324598 9.219563e-39
-0.008356303 0.037 -0.089658462 9.219563e-39
-0.0096807303 0.037 -0.089602374 9.219563e-39
-0.0074183736 0.037 -0.095999278 9.219563e-39
-0.0046792459 0.037 -0.065405563 9.219563e-39
-0.0045973891 0.037 -0.062320478 9.219563e-39
-0.0081205247 0.037 -0.080607317 9.219563e-39
-0.0055618794 0.037 -0.081293605 9.219563e-39
-0.0058029271 0.037 -0.080074988 9.219563e-39
-0.0071509071 0.037 -0.07700333 9.219563e-39
-0.0077666454 0.037 -0.085965693 9.219563e-39
-0.0065774876 0.037 -0.075979233 9.219563e-39
-0.0097281169 0.037 -0.092280999 9.219563e-39
-0.0099767596 0.037 -0.095867984 9.219563e-39
-0.0054797283 0.037 -0.079073012 9.219563e-39
-0.0066773081 0.037 -0.085646398 9.219563e-39
-0.0089069568 0.037 -0.091592573 9.219563e-39
-0.0071358378 0.037 -0.084597617 9.219563e-39
-0.0060752537 0.037 -0.071695775 9.219563e-39
-0.0045407354 0.037 -0.067726396 9.219563e-39
-0.0086089429 0.037 -0.093940489 9.219563e-39
-0.0042941216 0.037 -0.073647283 9.219563e-39
-0.0028468589 0.037 -0.062820598 9.219563e-39
-0.0019456499 0.037 -0.061327875 9.219563e-39
-0.0030261229 0.037 -0.061646812 9.219563e-39
-0.0041600321 0.037 -0.075949326 9.219563e-39
-0.0035591121 0.037 -0.068693496 9.219563e-39
-0.0029525512 0.037 -0.05763365 9.219563e-39
-0.0020445851 0.037 -0.058396868 9.219563e-39
-0.0032428284 0.037 -0.059354018 9.219563e-39
-0.0045790453 0.037 -0.074897908 9.219563e-39
-0.0035070439 0.037 -0.064845674 9.219563e-39
-0.0031437338 0.037 -0.060531493 9.219563e-39
-0.0033739146 0.037 -0.067211866 9.219563e-39
-0.00540148 0.037 -0.084685363 9.219563e-39
-0.0053826147 0.037 -0.086842246 9.219563e-39
-0.0041951616 0.037 -0.070484273 9.219563e-39
-0.0046362909 0.037 -0.080082536 9.219563e-39
-0.0051932922 0.037 -0.077531993 9.219563e-39
-0.001886461 0.037 -0.06609869 9.219563e-39
