# .PCD v0.7 - Point Cloud Data file format
VERSION 0.7
FIELDS x y z rgb
SIZE 4 4 4 4
TYPE F F F F
COUNT 1 1 1 1
WIDTH 915
HEIGHT 1
VIEWPOINT 0 0 0 1 0 0 0
POINTS 915
DATA ascii
-0.014390046 0.0043794932 -0.013876999 9.219563e-39
-0.014466938 0.0050104498 -0.013804167 9.219563e-39
-0.014481263 -0.0030238291 -0.013790597 9.219563e-39
-0.013523285 0.010640331 -0.014698002 9.219563e-39
-0.013555693 0.016765038 -0.014667305 9.219563e-39
-0.013797928 0.010426921 -0.014437857 9.219563e-39
-0.014562266 0.0080287792 -0.013704125 9.219563e-39
-0.014770518 0.004887112 -0.013458961 9.219563e-39
-0.014989417 -0.010039612 -0.013201263 9.219563e-39
-0.015099109 -0.0035182068 -0.013072127 9.219563e-39
-0.014752883 0.0072547765 -0.013479722 9.219563e-39
-0.014637041 -0.017269678 -0.013616095 9.219563e-39
-0.015145025 -0.01635736 -0.013018074 9.219563e-39
-0.015135178 -0.013391765 -0.013029665 9.219563e-39
-0.015099206 0.0011949777 -0.013072014 9.219563e-39
-0.014531337 -0.01510322 -0.013740537 9.219563e-39
-0.015115674 -0.01261619 -0.013052627 9.219563e-39
-0.014962314 -0.0072068176 -0.01323317 9.219563e-39
-0.015212075 -0.0059446143 -0.012939139 9.219563e-39
-0.015117274 -0.0015037558 -0.013050744 9.219563e-39
-0.014599451 0.0064585414 -0.01366035 9.219563e-39
-0.014770981 0.0021057501 -0.013458416 9.219563e-39
-0.014637426 0.010204084 -0.013615644 9.219563e-39
-0.014668607 -0.013479738 -0.013578936 9.219563e-39
-0.0149306 -0.01292186 -0.013270505 9.219563e-39
-0.015659528 -0.017405374 -0.012412376 9.219563e-39
-0.015296104 -0.0091105159 -0.012840216 9.219563e-39
-0.015399066 -0.015029049 -0.012719005 9.219563e-39
-0.014909416 -0.014800326 -0.013295445 9.219563e-39
-0.015441204 -0.013502333 -0.012669398 9.219563e-39
-0.014724453 -0.0061442531 -0.013513191 9.219563e-39
-0.015447292 -0.011371938 -0.012662231 9.219563e-39
-0.015663283 -0.011708219 -0.012407957 9.219563e-39
-0.015396967 -0.012896187 -0.012721476 9.219563e-39
-0.015398798 -0.01727201 -0.01271932 9.219563e-39
-0.01518203 -0.0050981143 -0.012974509 9.219563e-39
-0.014852839 -0.01252245 -0.013362049 9.219563e-39
-0.015440671 -0.0079883365 -0.012670026 9.219563e-39
-0.014865975 -0.0096769482 -0.013346585 9.219563e-39
-0.015729396 -0.013396986 -0.012330124 9.219563e-39
-0.015217488 -0.014176193 -0.012932767 9.219563e-39
-0.015416544 -0.010528514 -0.01269843 9.219563e-39
-0.014803915 -0.0014650846 -0.013419644 9.219563e-39
-0.014597478 -0.012487001 -0.013662671 9.219563e-39
-0.014657046 0.0039141597 -0.013592546 9.219563e-39
-0.015486112 -0.0096027199 -0.01261653 9.219563e-39
-0.015039602 -0.013747674 -0.013142182 9.219563e-39
-0.01482872 -0.0092162285 -0.013390442 9.219563e-39
-0.014756856 -0.016448388 -0.013475045 9.219563e-39
-0.015751896 -0.015184513 -0.012303635 9.219563e-39
-0.014975384 -0.0064051244 -0.013217783 9.219563e-39
-0.014982785 0.0044904444 -0.01320907 9.219563e-39
-0.015128557 0.0021328803 -0.013037462 9.219563e-39
-0.015270811 -0.010172685 -0.012869992 9.219563e-39
-0.014685845 -0.013086621 -0.013558642 9.219563e-39
-0.014876929 0.0053358586 -0.013333688 9.219563e-39
-0.014711336 -0.011992097 -0.013528632 9.219563e-39
-0.014574391 -0.010141009 -0.01368985 9.219563e-39
-0.015363745 -0.0044773892 -0.012760586 9.219563e-39
-0.014603021 -0.0067937388 -0.013656147 9.219563e-39
-0.01498195 -0.0021572227 -0.013210054 9.219563e-39
-0.015660739 -0.011045167 -0.012410951 9.219563e-39
-0.014937099 0.0040018037 -0.013262853 9.219563e-39
-0.014815023 0.0079099387 -0.013406567 9.219563e-39
-0.014718825 -0.014313385 -0.013519816 9.219563e-39
-0.015182271 -0.011247049 -0.012974226 9.219563e-39
-0.01536987 -0.0067430213 -0.012753376 9.219563e-39
-0.014595673 0.0015707284 -0.013664796 9.219563e-39
-0.015542429 -0.014196863 -0.01255023 9.219563e-39
-0.014903029 -0.016811788 -0.013302962 9.219563e-39
-0.014827391 0.0030401584 -0.013392007 9.219563e-39
-0.015421238 -0.012373903 -0.012692903 9.219563e-39
-0.014539677 -0.0056303297 -0.013730719 9.219563e-39
-0.01480177 -0.0050108433 -0.01342217 9.219563e-39
-0.01514382 0.00018358945 -0.013019492 9.219563e-39
-0.014704554 0.012724717 -0.013536616 9.219563e-39
-0.014609687 -0.0046240855 -0.013648299 9.219563e-39
-0.014673817 -0.0019700215 -0.013572802 9.219563e-39
-0.015201431 -0.0073299734 -0.01295167 9.219563e-39
-0.015759893 -0.016774038 -0.012294224 9.219563e-39
-0.014672652 0.011956189 -0.013574174 9.219563e-39
-0.015102888 -0.0068264361 -0.01306768 9.219563e-39
-0.015362513 -0.011815524 -0.012762036 9.219563e-39
-0.014954165 0.0058686445 -0.013242763 9.219563e-39
-0.015305148 -0.0083224326 -0.012829569 9.219563e-39
-0.014751352 0.003485023 -0.013481524 9.219563e-39
-0.014910754 -0.017253157 -0.013293869 9.219563e-39
-0.014608072 -0.00057815632 -0.013650199 9.219563e-39
-0.014984428 -0.0029930917 -0.013207136 9.219563e-39
-0.014601076 0.014376974 -0.013658436 9.219563e-39
-0.015033885 -0.0084933415 -0.013148912 9.219563e-39
-0.01480517 0.0090029621 -0.013418167 9.219563e-39
-0.015104983 -0.0079454323 -0.013065212 9.219563e-39
-0.01471776 -0.00330241 -0.01352107 9.219563e-39
-0.015018448 -0.0089223552 -0.013167086 9.219563e-39
-0.014891759 -0.015691584 -0.013316231 9.219563e-39
-0.014944862 0.0062902952 -0.013253715 9.219563e-39
-0.014658177 0.0058344547 -0.013591214 9.219563e-39
-0.015616771 -0.014605412 -0.012462712 9.219563e-39
-0.014877807 -0.0045882808 -0.013332655 9.219563e-39
-0.015710995 -0.012319495 -0.012351789 9.219563e-39
-0.014790153 -0.0037738532 -0.013435846 9.219563e-39
-0.01485217 0.0067018946 -0.013362836 9.219563e-39
-0.014729701 -0.007403844 -0.013507013 9.219563e-39
-0.015680641 -0.016316375 -0.012387522 9.219563e-39
-0.014669999 0.0096035246 -0.013577295 9.219563e-39
-0.015447163 -0.015908143 -0.012662383 9.219563e-39
-0.015057822 -0.00063958688 -0.013120733 9.219563e-39
-0.015092019 -0.011989659 -0.013080475 9.219563e-39
-0.014547145 0.0029470616 -0.013721926 9.219563e-39
-0.01457258 0.00075571827 -0.013691983 9.219563e-39
-0.014549313 0.0069618649 -0.013719374 9.219563e-39
-0.015022303 -0.0056473669 -0.013162548 9.219563e-39
-0.014563741 -0.013844572 -0.013702388 9.219563e-39
-0.014934158 0.0025657623 -0.013266317 9.219563e-39
-0.014879886 -0.00019137806 -0.013330207 9.219563e-39
-0.014867513 0.00042185315 -0.013344774 9.219563e-39
-0.015213206 -0.0039736396 -0.012937807 9.219563e-39
-0.014829144 0.00093216222 -0.013389943 9.219563e-39
-0.014652636 -0.008653108 -0.013597737 9.219563e-39
-0.014671289 -0.010535824 -0.013575777 9.219563e-39
-0.014668494 0.01314264 -0.013579068 9.219563e-39
-0.014687045 -0.0024117881 -0.013557228 9.219563e-39
-0.014735056 0.0083350455 -0.013500709 9.219563e-39
-0.015108928 -0.004366626 -0.013060568 9.219563e-39
-0.015201026 -0.01462987 -0.012952147 9.219563e-39
-0.014614757 -0.011478265 -0.01364233 9.219563e-39
-0.0153825 -0.01663998 -0.012738506 9.219563e-39
-0.015051813 -0.01056739 -0.013127808 9.219563e-39
-0.014882618 -0.0081337644 -0.013326992 9.219563e-39
-0.015497661 -0.015465733 -0.012602934 9.219563e-39
-0.014589937 -0.00097848754 -0.013671549 9.219563e-39
-0.014853119 -0.00090493262 -0.013361719 9.219563e-39
-0.01529204 -0.0023182307 -0.012845001 9.219563e-39
-0.01484354 -0.011161909 -0.013372996 9.219563e-39
-0.015293866 -0.0055711372 -0.01284285 9.219563e-39
-0.015058971 -0.0093991375 -0.01311938 9.219563e-39
-0.014522227 -0.0095134629 -0.013751261 9.219563e-39
-0.01489606 -0.015220598 -0.013311166 9.219563e-39
-0.015708743 0.0049893153 -0.012354438 9.219563e-39
-0.015768681 0.011841508 -0.012283877 9.219563e-39
-0.015549017 0.0022819955 -0.012542475 9.219563e-39
-0.014928538 0.014367088 -0.013272933 9.219563e-39
-0.01582686 -0.00033342466 -0.012215384 9.219563e-39
-0.015749644 0.012476165 -0.012306288 9.219563e-39
-0.015843902 0.00028452373 -0.012195323 9.219563e-39
-0.015647631 -0.010056097 -0.012426381 9.219563e-39
-0.015390616 -0.0028271961 -0.012728953 9.219563e-39
-0.015128368 0.0090801036 -0.013037683 9.219563e-39
-0.01573397 0.013262909 -0.01232474 9.219563e-39
-0.015094887 0.0072509204 -0.013077098 9.219563e-39
-0.015447904 0.00065392151 -0.01266151 9.219563e-39
-0.015492436 0.015406387 -0.012609086 9.219563e-39
-0.015834684 0.016096907 -0.012206174 9.219563e-39
-0.014996836 0.013477333 -0.013192528 9.219563e-39
-0.015084946 0.0077521917 -0.013088802 9.219563e-39
-0.015727909 -0.0051312014 -0.012331876 9.219563e-39
-0.015052156 0.0086614238 -0.013127404 9.219563e-39
-0.01588756 -0.014436121 -0.012143927 9.219563e-39
-0.015701298 0.0082658408 -0.012363203 9.219563e-39
-0.015900467 -0.012736461 -0.012128732 9.219563e-39
-0.014641818 0.016286558 -0.013610473 9.219563e-39
-0.015909823 0.0085913632 -0.012117717 9.219563e-39
-0.015496224 0.0036213628 -0.012604625 9.219563e-39
-0.015000095 0.015401389 -0.013188693 9.219563e-39
-0.015690569 0.0040049395 -0.012375833 9.219563e-39
-0.015118805 0.016180648 -0.013048942 9.219563e-39
-0.015610369 0.016794108 -0.012470249 9.219563e-39
-0.015880281 -0.002085024 -0.012152496 9.219563e-39
-0.015658315 -0.0085977493 -0.012413805 9.219563e-39
-0.015229396 0.015190034 -0.012918748 9.219563e-39
-0.015707701 0.0097608557 -0.012355664 9.219563e-39
-0.015312872 0.0087653575 -0.012820476 9.219563e-39
-0.015004753 0.012445434 -0.013183208 9.219563e-39
-0.015751287 0.0027289945 -0.012304353 9.219563e-39
-0.014953452 0.013035173 -0.013243602 9.219563e-39
-0.015159451 0.011445506 -0.01300109 9.219563e-39
-0.015870461 -0.011478546 -0.012164055 9.219563e-39
-0.014918562 0.016558351 -0.013284676 9.219563e-39
-0.015344214 0.0068122661 -0.012783579 9.219563e-39
-0.015092955 0.005038402 -0.013079373 9.219563e-39
-0.015114821 0.00363578 -0.013053631 9.219563e-39
-0.015544879 -0.0023740155 -0.012547347 9.219563e-39
-0.015289166 0.0024664062 -0.012848384 9.219563e-39
-0.015527614 0.0018909079 -0.012567671 9.219563e-39
-0.015412658 0.011791259 -0.012703003 9.219563e-39
-0.015497312 0.015822137 -0.012603344 9.219563e-39
-0.015852394 0.017459042 -0.012185326 9.219563e-39
-0.014889721 0.0093767792 -0.01331863 9.219563e-39
-0.015287649 0.0047528171 -0.01285017 9.219563e-39
-0.015886869 0.0063899802 -0.012144741 9.219563e-39
-0.015858421 -0.0028970884 -0.01217823 9.219563e-39
-0.015624963 0.0058027892 -0.012453069 9.219563e-39
-0.015216662 0.0082652885 -0.012933739 9.219563e-39
-0.015671674 0.0053977128 -0.012398077 9.219563e-39
-0.015636425 -0.0067318836 -0.012439574 9.219563e-39
-0.015402665 0.010715998 -0.012714768 9.219563e-39
-0.015465554 0.012790832 -0.012640731 9.219563e-39
-0.015736157 -0.0055707325 -0.012322166 9.219563e-39
-0.015613692 -0.00082402164 -0.012466337 9.219563e-39
-0.015157839 0.010165623 -0.013002988 9.219563e-39
-0.014842814 0.014936886 -0.01337385 9.219563e-39
-0.015743576 0.013882367 -0.01231343 9.219563e-39
-0.01522596 0.0063265408 -0.012922793 9.219563e-39
-0.014586714 0.015894551 -0.013675343 9.219563e-39
-0.015916988 -0.0082708038 -0.012109281 9.219563e-39
-0.015871968 -0.0070247888 -0.012162283 9.219563e-39
-0.01576671 0.010382042 -0.012286196 9.219563e-39
-0.015171396 0.010950369 -0.012987029 9.219563e-39
-0.015746389 0.015707161 -0.012310121 9.219563e-39
-0.015414448 0.0079676332 -0.012700896 9.219563e-39
-0.014934585 0.0098362071 -0.013265814 9.219563e-39
-0.015353881 0.0010750885 -0.012772199 9.219563e-39
-0.014749919 0.013931477 -0.01348321 9.219563e-39
-0.015622837 0.0065417862 -0.012455571 9.219563e-39
-0.015772641 -0.0012185279 -0.012279214 9.219563e-39
-0.015487975 -0.0019224749 -0.012614338 9.219563e-39
-0.015864059 0.0078587374 -0.012171593 9.219563e-39
-0.014888656 0.010332155 -0.013319883 9.219563e-39
-0.015526053 0.0071605858 -0.01256951 9.219563e-39
-0.014727472 0.015480914 -0.013509637 9.219563e-39
-0.015479158 -0.0051105679 -0.012624717 9.219563e-39
-0.01559025 0.016360616 -0.012493934 9.219563e-39
-0.015585405 -0.0037940927 -0.012499638 9.219563e-39
-0.014953572 0.015794871 -0.013243461 9.219563e-39
-0.015514223 0.012178261 -0.012583437 9.219563e-39
-0.015828898 -0.010487438 -0.012212985 9.219563e-39
-0.015395783 -0.0006417993 -0.012722869 9.219563e-39
-0.014825945 0.016980397 -0.01339371 9.219563e-39
-0.014969446 0.011803987 -0.013224773 9.219563e-39
-0.015739383 -0.0093636755 -0.012318367 9.219563e-39
-0.015682623 0.0087621799 -0.012385188 9.219563e-39
-0.015390742 0.013271791 -0.012728805 9.219563e-39
-0.015761623 -0.0075445678 -0.012292187 9.219563e-39
-0.014906515 0.010776145 -0.013298858 9.219563e-39
-0.015140427 0.0031636085 -0.013023486 9.219563e-39
-0.015637809 -1.8096689e-05 -0.012437944 9.219563e-39
-0.01573457 0.011025113 -0.012324033 9.219563e-39
-0.015518404 0.0030657006 -0.012578514 9.219563e-39
-0.015532894 0.014253768 -0.012561456 9.219563e-39
-0.015882879 0.0093841311 -0.012149436 9.219563e-39
-0.015791403 -0.0042558094 -0.012257127 9.219563e-39
-0.015269056 0.016902775 -0.012872059 9.219563e-39
-0.015259315 0.014636057 -0.012883525 9.219563e-39
-0.015706345 0.014695844 -0.012357262 9.219563e-39
-0.015603045 -0.0032129542 -0.012478871 9.219563e-39
-0.015337216 0.0056605898 -0.012791818 9.219563e-39
-0.01560118 -0.00463269 -0.012481067 9.219563e-39
-0.015258037 0.012230222 -0.012885029 9.219563e-39
-0.015503626 0.00448826 -0.012595912 9.219563e-39
-0.015641427 0.0015284722 -0.012433685 9.219563e-39
-0.015595097 -0.0062537305 -0.012488227 9.219563e-39
-0.015857613 0.014259056 -0.012179182 9.219563e-39
-0.015403518 -0.0014982359 -0.012713763 9.219563e-39
-0.015860436 0.0068291579 -0.012175857 9.219563e-39
-0.015347441 0.01380657 -0.012779781 9.219563e-39
-0.015679328 -0.0016459391 -0.012389068 9.219563e-39
-0.015737219 0.003525418 -0.012320915 9.219563e-39
-0.015240504 -0.00027424743 -0.012905671 9.219563e-39
-0.015538484 0.011381824 -0.012554876 9.219563e-39
-0.015347423 0.0015034752 -0.0127798 9.219563e-39
-0.015867898 0.0023713098 -0.012167073 9.219563e-39
-0.015870869 0.0010760316 -0.012163577 9.219563e-39
-0.015110866 0.0140431 -0.013058286 9.219563e-39
-0.015746528 -0.0079822186 -0.012309955 9.219563e-39
-0.015513888 -0.0072835963 -0.012583831 9.219563e-39
-0.015476175 0.017256932 -0.012628228 9.219563e-39
-0.015754031 0.0043997499 -0.012301123 9.219563e-39
-0.015918048 0.0015733745 -0.012108035 9.219563e-39
-0.015935674 0.01007594 -0.012083182 9.219563e-39
-0.015949117 0.01149402 -0.012063356 9.219563e-39
-0.016777121 -0.013247785 -0.010842065 9.219563e-39
-0.016014569 0.0090168957 -0.011966815 9.219563e-39
-0.016080793 -0.0013481699 -0.011869135 9.219563e-39
-0.016025035 0.012661185 -0.011951377 9.219563e-39
-0.016273329 -0.0068325759 -0.011585149 9.219563e-39
-0.016143883 0.00841974 -0.011776078 9.219563e-39
-0.016065881 -0.014070899 -0.01189113 9.219563e-39
-0.016872516 -0.015038792 -0.010701357 9.219563e-39
-0.016479569 -0.015673792 -0.011280947 9.219563e-39
-0.015971286 0.0074261189 -0.012030655 9.219563e-39
-0.016402479 -0.0073407674 -0.011394654 9.219563e-39
-0.016154334 -0.011518912 -0.011760664 9.219563e-39
-0.016533762 -0.012683191 -0.011201014 9.219563e-39
-0.016202103 0.00051253766 -0.011690205 9.219563e-39
-0.016000565 0.01224319 -0.011987471 9.219563e-39
-0.016627751 -0.0043394547 -0.011062381 9.219563e-39
-0.016232992 -0.0094651096 -0.011644644 9.219563e-39
-0.016863782 -0.0096605485 -0.010714242 9.219563e-39
-0.01595811 0.015382656 -0.012050091 9.219563e-39
-0.016301464 -0.0028126177 -0.011543648 9.219563e-39
-0.016949911 -0.012495798 -0.010587203 9.219563e-39
-0.016053576 -0.013245516 -0.01190928 9.219563e-39
-0.016289223 -0.010009163 -0.011561706 9.219563e-39
-0.016033418 -0.0051951963 -0.011939012 9.219563e-39
-0.016404945 -0.015102504 -0.011391016 9.219563e-39
-0.016391646 -0.012097561 -0.011410633 9.219563e-39
-0.016341459 -0.010945676 -0.011484658 9.219563e-39
-0.015923873 -0.0097892806 -0.012100589 9.219563e-39
-0.016354727 -0.0052221264 -0.011465088 9.219563e-39
-0.015962522 0.00066047453 -0.012043582 9.219563e-39
-0.016125187 -0.0035682193 -0.011803654 9.219563e-39
-0.015941529 -0.00068996323 -0.012074548 9.219563e-39
-0.016736293 -0.016712217 -0.010902284 9.219563e-39
-0.016166659 0.0064685615 -0.011742486 9.219563e-39
-0.016363716 0.0022595804 -0.01145183 9.219563e-39
-0.016449364 -0.00047752832 -0.011325501 9.219563e-39
-0.016084107 -0.01688855 -0.011864249 9.219563e-39
-0.016078746 0.0060824919 -0.011872157 9.219563e-39
-0.016115481 -0.0030545813 -0.011817972 9.219563e-39
-0.016286498 -0.0089817736 -0.011565723 9.219563e-39
-0.016059296 0.0029792236 -0.011900843 9.219563e-39
-0.01593793 -0.005825222 -0.012079855 9.219563e-39
-0.016214043 0.0025522818 -0.011672594 9.219563e-39
-0.016298007 -0.013192729 -0.011548749 9.219563e-39
-0.016861344 -0.010419998 -0.010717837 9.219563e-39
-0.016518958 -0.0059969882 -0.011222849 9.219563e-39
-0.015989996 -0.0087094577 -0.012003059 9.219563e-39
-0.016035002 0.0041568135 -0.011936676 9.219563e-39
-0.016637558 -0.012069159 -0.011047917 9.219563e-39
-0.016372021 0.0010611287 -0.01143958 9.219563e-39
-0.015962832 -0.015483065 -0.012043125 9.219563e-39
-0.016062625 0.00010956246 -0.011895934 9.219563e-39
-0.015988028 -0.009103315 -0.012005962 9.219563e-39
-0.016228242 -0.014682864 -0.011651652 9.219563e-39
-0.016422715 -0.014180986 -0.011364807 9.219563e-39
-0.015980406 0.0053821858 -0.012017204 9.219563e-39
-0.016096553 0.011135185 -0.01184589 9.219563e-39
-0.016703909 -0.0066804807 -0.010950049 9.219563e-39
-0.016353391 0.0028896129 -0.011467057 9.219563e-39
-0.015949769 -0.0016842538 -0.012062392 9.219563e-39
-0.016403299 -0.0040940521 -0.011393446 9.219563e-39
-0.016108543 0.0020033293 -0.011828206 9.219563e-39
-0.016180007 -0.01552228 -0.011722797 9.219563e-39
-0.016361469 -4.4405286e-05 -0.011455143 9.219563e-39
-0.015970968 -0.012137597 -0.012031127 9.219563e-39
-0.015934315 0.0038115974 -0.012085189 9.219563e-39
-0.01604622 -0.010977325 -0.011920129 9.219563e-39
-0.016355712 -0.0020497118 -0.011463636 9.219563e-39
-0.016410993 -0.0015652919 -0.011382096 9.219563e-39
-0.016730491 -0.0074698986 -0.010910843 9.219563e-39
-0.016204944 -0.0076686474 -0.011686016 9.219563e-39
-0.016535362 -0.0029350345 -0.011198654 9.219563e-39
-0.016279105 -0.0084517431 -0.011576629 9.219563e-39
-0.016693957 -0.010799619 -0.010964731 9.219563e-39
-0.016651897 -0.0048599821 -0.011026767 9.219563e-39
-0.016291998 0.0059785252 -0.011557611 9.219563e-39
-0.016119068 0.001298862 -0.01181268 9.219563e-39
-0.016740197 -0.0087663373 -0.010896524 9.219563e-39
-0.016007325 -0.006418277 -0.0119775 9.219563e-39
-0.016422296 -0.010541086 -0.011365424 9.219563e-39
-0.01670029 -0.013953124 -0.010955389 9.219563e-39
-0.016306268 -0.013700846 -0.011536565 9.219563e-39
-0.016010586 -0.014908031 -0.011972689 9.219563e-39
-0.016052876 -0.016242456 -0.011910314 9.219563e-39
-0.01674542 -0.01118823 -0.010888821 9.219563e-39
-0.016608741 -0.014500407 -0.011090422 9.219563e-39
-0.016567033 -0.0083241249 -0.011151941 9.219563e-39
-0.015976371 -0.0039247172 -0.012023155 9.219563e-39
-0.016524635 -0.017072136 -0.011214476 9.219563e-39
-0.016658731 -0.010126815 -0.011016686 9.219563e-39
-0.016029447 -0.0045758677 -0.01194487 9.219563e-39
-0.016596925 -0.013538192 -0.011107852 9.219563e-39
-0.016281249 -0.00113768 -0.011573466 9.219563e-39
-0.016053965 0.0046164524 -0.011908705 9.219563e-39
-0.016203554 0.0037210523 -0.011688063 9.219563e-39
-0.016171131 -0.010580632 -0.011735889 9.219563e-39
-0.016558016 -0.016121035 -0.011165241 9.219563e-39
-0.016249828 -0.0044833007 -0.011619811 9.219563e-39
-0.016536245 -0.00094344531 -0.011197352 9.219563e-39
-0.016199971 -0.0058924365 -0.01169335 9.219563e-39
-0.01701791 -0.014192486 -0.010486905 9.219563e-39
-0.016108746 -0.002203715 -0.011827906 9.219563e-39
-0.016538303 -0.01135742 -0.011194316 9.219563e-39
-0.016745495 -0.0092512555 -0.010888712 9.219563e-39
-0.01687328 -0.012100657 -0.01070023 9.219563e-39
-0.016392672 -0.017486438 -0.01140912 9.219563e-39
-0.016473992 -0.0025453907 -0.011289174 9.219563e-39
-0.016556215 -0.0034218237 -0.011167896 9.219563e-39
-0.016737165 -0.015899681 -0.010900999 9.219563e-39
-0.016887555 -0.015488217 -0.010679177 9.219563e-39
-0.016311526 0.0046314662 -0.011528807 9.219563e-39
-0.01628889 0.0041597821 -0.011562197 9.219563e-39
-0.0169925 -0.016646285 -0.010524383 9.219563e-39
-0.016348029 -0.016350903 -0.011474969 9.219563e-39
-0.016624635 -0.015211971 -0.011066978 9.219563e-39
-0.016287876 -0.012737758 -0.01156369 9.219563e-39
-0.016496712 -0.0094240895 -0.011255661 9.219563e-39
-0.016135387 0.0069077504 -0.01178861 9.219563e-39
-0.016129276 -0.017492572 -0.011797626 9.219563e-39
-0.016300805 -0.006372096 -0.011544621 9.219563e-39
-0.017071823 -0.01371237 -0.010407384 9.219563e-39
-0.016982503 -0.00032182393 -0.010539128 9.219563e-39
-0.01703559 0.010645856 -0.010460827 9.219563e-39
-0.017134549 0.012073169 -0.010314864 9.219563e-39
-0.017100193 0.0055118776 -0.010365539 9.219563e-39
-0.016251028 0.017068816 -0.011618041 9.219563e-39
-0.016291888 0.0092012649 -0.011557775 9.219563e-39
-0.01673032 -0.00045871607 -0.010911096 9.219563e-39
-0.016798262 0.01713514 -0.010810883 9.219563e-39
-0.017053224 0.0061631803 -0.010434816 9.219563e-39
-0.016201802 0.01032206 -0.011690649 9.219563e-39
-0.017028386 0.0028135739 -0.010471452 9.219563e-39
-0.017078273 0.0098368628 -0.010397871 9.219563e-39
-0.016637949 0.015846087 -0.011047339 9.219563e-39
-0.016954605 0.0081721423 -0.010580278 9.219563e-39
-0.016804442 0.0040490706 -0.010801767 9.219563e-39
-0.01659097 0.0076807695 -0.011116633 9.219563e-39
-0.017036753 0.0040908172 -0.01045911 9.219563e-39
-0.017082628 -0.0022552791 -0.010391448 9.219563e-39
-0.016320266 0.015259873 -0.011515918 9.219563e-39
-0.016911829 -0.0077361236 -0.010643371 9.219563e-39
-0.017104102 -0.007508582 -0.010359772 9.219563e-39
-0.016016046 0.016566636 -0.011964637 9.219563e-39
-0.016733555 -0.0020659538 -0.010906322 9.219563e-39
-0.016841073 0.0017727807 -0.010747735 9.219563e-39
-0.016284013 0.012121213 -0.01156939 9.219563e-39
-0.016737025 0.013736323 -0.010901204 9.219563e-39
-0.01682229 0.010934546 -0.010775441 9.219563e-39
-0.016729191 0.014297687 -0.010912759 9.219563e-39
-0.016562808 0.0018217793 -0.011158172 9.219563e-39
-0.016443534 0.011645477 -0.0113341 9.219563e-39
-0.016676428 -0.0013061301 -0.010990583 9.219563e-39
-0.016833302 0.0095736524 -0.0107592 9.219563e-39
-0.016597485 0.0082839066 -0.011107025 9.219563e-39
-0.016583594 0.014688576 -0.011127513 9.219563e-39
-0.016856417 0.0057900636 -0.010725103 9.219563e-39
-0.016995169 -0.012959166 -0.010520447 9.219563e-39
-0.016203627 0.011543002 -0.011687957 9.219563e-39
-0.016821085 0.0084790345 -0.010777217 9.219563e-39
-0.01644964 0.0088412995 -0.011325093 9.219563e-39
-0.016706996 0.0091039306 -0.010945496 9.219563e-39
-0.016828213 -0.005176594 -0.010766704 9.219563e-39
-0.017076904 0.015613827 -0.01039989 9.219563e-39
-0.016938949 0.0021506744 -0.010603371 9.219563e-39
-0.016898204 0.011619324 -0.01066347 9.219563e-39
-0.016689202 0.011315998 -0.010971744 9.219563e-39
-0.017107438 -0.011622653 -0.010354851 9.219563e-39
-0.016424794 0.011240737 -0.011361741 9.219563e-39
-0.017043933 0.00085646386 -0.010448519 9.219563e-39
-0.01697099 -0.0043659755 -0.010556109 9.219563e-39
-0.016723484 0.015083652 -0.010921178 9.219563e-39
-0.017068112 -0.010698427 -0.010412858 9.219563e-39
-0.016413907 0.0098855477 -0.011377799 9.219563e-39
-0.016868792 0.015516845 -0.010706851 9.219563e-39
-0.016959501 0.012630327 -0.010573057 9.219563e-39
-0.016289148 0.0077949357 -0.011561815 9.219563e-39
-0.016367652 0.016492538 -0.011446024 9.219563e-39
-0.016251197 0.015700882 -0.011617792 9.219563e-39
-0.016926084 -0.0081373882 -0.010622346 9.219563e-39
-0.016435949 0.01748772 -0.011345285 9.219563e-39
-0.016731501 0.0050081657 -0.010909354 9.219563e-39
-0.016615741 0.0032237347 -0.011080097 9.219563e-39
-0.016791938 0.013197341 -0.010820208 9.219563e-39
-0.017037779 -0.0090088323 -0.010457597 9.219563e-39
-0.016812773 0.010222155 -0.010789476 9.219563e-39
-0.016805166 0.0036444592 -0.010800697 9.219563e-39
-0.016923839 -0.0015927028 -0.010625658 9.219563e-39
-0.016915424 0.0066184215 -0.01063807 9.219563e-39
-0.016113194 0.013390038 -0.011821344 9.219563e-39
-0.017004166 0.015103516 -0.010507176 9.219563e-39
-0.016549101 0.0047218408 -0.011178389 9.219563e-39
-0.016660487 0.0063551604 -0.011014097 9.219563e-39
-0.016755557 0.0079525327 -0.010873871 9.219563e-39
-0.016498474 0.00259725 -0.011253063 9.219563e-39
-0.017134666 0.014754994 -0.01031469 9.219563e-39
-0.016815977 -0.0039866795 -0.010784753 9.219563e-39
-0.01684182 -0.00078964117 -0.010746634 9.219563e-39
-0.016454985 0.013534242 -0.011317209 9.219563e-39
-0.016595073 0.016440563 -0.011110581 9.219563e-39
-0.016726423 -0.002719837 -0.010916842 9.219563e-39
-0.016517302 0.017048515 -0.011225292 9.219563e-39
-0.016976295 0.0071922932 -0.010548286 9.219563e-39
-0.017096672 0.0003849986 -0.010370732 9.219563e-39
-0.016411724 0.013141426 -0.01138102 9.219563e-39
-0.016849251 -0.0055808309 -0.010735671 9.219563e-39
-0.016511621 0.0056144781 -0.011233671 9.219563e-39
-0.016983915 0.013395175 -0.010537047 9.219563e-39
-0.016408198 0.0065647494 -0.011386218 9.219563e-39
-0.016800122 0.0026639197 -0.010808138 9.219563e-39
-0.016924802 0.016099371 -0.010624236 9.219563e-39
-0.016884105 0.0013265441 -0.010684264 9.219563e-39
-0.016909678 0.014623973 -0.010646545 9.219563e-39
-0.017115414 -0.0057923761 -0.010343088 9.219563e-39
-0.017062504 -0.010056828 -0.010421128 9.219563e-39
-0.016703835 3.8021648e-05 -0.010950159 9.219563e-39
-0.016800933 -0.0070209028 -0.010806941 9.219563e-39
-0.017044811 -0.0034032308 -0.010447226 9.219563e-39
-0.016579978 0.012872593 -0.011132845 9.219563e-39
-0.017107461 0.016513616 -0.010354819 9.219563e-39
-0.016967047 0.0089492789 -0.010561925 9.219563e-39
-0.016988652 0.017484242 -0.010530059 9.219563e-39
-0.016134957 0.014204388 -0.011789244 9.219563e-39
-0.016841544 -0.0062707704 -0.010747042 9.219563e-39
-0.017045008 0.017045315 -0.010446935 9.219563e-39
-0.016995067 -0.0011173309 -0.010520597 9.219563e-39
-0.017116332 0.0016152688 -0.010341735 9.219563e-39
-0.016354332 0.0072901594 -0.011465671 9.219563e-39
-0.017121116 -0.015573394 -0.010334678 9.219563e-39
-0.016523743 0.01542809 -0.011215793 9.219563e-39
-0.016304044 0.014590782 -0.011539844 9.219563e-39
-0.016055582 0.014968444 -0.011906322 9.219563e-39
-0.016174408 0.016231781 -0.011731055 9.219563e-39
-0.016190846 0.012968578 -0.01170681 9.219563e-39
-0.016645839 0.00062089437 -0.011035703 9.219563e-39
-0.016391048 0.0052732141 -0.011411513 9.219563e-39
-0.017114308 -0.016032573 -0.010344719 9.219563e-39
-0.016628614 0.0043468112 -0.011061109 9.219563e-39
-0.016630832 0.012201844 -0.011057837 9.219563e-39
-0.016861064 0.0053920546 -0.01071825 9.219563e-39
-0.017128516 0.0031573155 -0.010323761 9.219563e-39
-0.016849613 0.012218746 -0.010735138 9.219563e-39
-0.017130818 0.0036927499 -0.010320368 9.219563e-39
-0.016516848 0.0036995485 -0.011225961 9.219563e-39
-0.016630193 0.0071170107 -0.01105878 9.219563e-39
-0.017065512 -0.0026933742 -0.010416693 9.219563e-39
-0.016845707 0.0003677741 -0.0107409 9.219563e-39
-0.016929243 0.0047599631 -0.010617686 9.219563e-39
-0.016877564 0.01663094 -0.010693912 9.219563e-39
-0.016133813 0.017430687 -0.011790931 9.219563e-39
-0.016593298 0.010273334 -0.011113198 9.219563e-39
-0.017631842 -0.016563412 -0.0093779387 9.219563e-39
-0.017622555 -0.013519417 -0.009395455 9.219563e-39
-0.017562557 -0.0030842933 -0.00950862 9.219563e-39
-0.01751172 -0.015075735 -0.0096045081 9.219563e-39
-0.017557381 0.0013563774 -0.009518384 9.219563e-39
-0.017254584 -0.012509449 -0.010089508 9.219563e-39
-0.017165186 0.0047319466 -0.010258125 9.219563e-39
-0.017342253 0.0070209675 -0.0099241501 9.219563e-39
-0.017793413 -0.015844181 -0.0090731885 9.219563e-39
-0.017656734 -0.0037242507 -0.0093309879 9.219563e-39
-0.017238606 0.0082536303 -0.010119643 9.219563e-39
-0.017377686 0.0085866489 -0.0098573174 9.219563e-39
-0.018126303 -0.01724316 -0.0084453057 9.219563e-39
-0.01727001 -0.0029446969 -0.010060412 9.219563e-39
-0.017862175 -0.0085536018 -0.0089434925 9.219563e-39
-0.017855706 -0.01493757 -0.0089556947 9.219563e-39
-0.017560411 0.0017695088 -0.0095126694 9.219563e-39
-0.017822241 -0.012899523 -0.0090188133 9.219563e-39
-0.017878834 -0.016784946 -0.0089120707 9.219563e-39
-0.017140284 -0.0066499398 -0.010305096 9.219563e-39
-0.017608861 0.00059818174 -0.0094212862 9.219563e-39
-0.017248347 0.0012991948 -0.010101269 9.219563e-39
-0.017370256 -0.0032679292 -0.0098713329 9.219563e-39
-0.017344203 -0.0014683899 -0.0099204713 9.219563e-39
-0.017271474 -0.012096561 -0.010057651 9.219563e-39
-0.017301278 -0.014716661 -0.010001435 9.219563e-39
-0.017437259 -0.010718849 -0.0097449543 9.219563e-39
-0.017265733 -0.017044829 -0.010068476 9.219563e-39
-0.017286114 -0.0046145855 -0.010030038 9.219563e-39
-0.017169967 -0.013235511 -0.010249108 9.219563e-39
-0.017971927 -0.011961549 -0.0087364828 9.219563e-39
-0.017753791 -0.015381776 -0.0091479206 9.219563e-39
-0.017399095 0.0047201188 -0.0098169381 9.219563e-39
-0.017400054 0.0080324579 -0.0098151267 9.219563e-39
-0.017231513 -0.0062867696 -0.010133024 9.219563e-39
-0.017606935 -0.012110672 -0.0094249165 9.219563e-39
-0.017187551 -0.0054087169 -0.010215945 9.219563e-39
-0.017826917 -0.013318119 -0.0090099955 9.219563e-39
-0.017365441 0.0042966101 -0.0098804133 9.219563e-39
-0.017493905 -0.001182752 -0.0096381083 9.219563e-39
-0.017495498 -0.0054140496 -0.0096351057 9.219563e-39
-0.017333359 0.0038997252 -0.009940926 9.219563e-39
-0.017176775 -0.011041319 -0.010236268 9.219563e-39
-0.017159637 -0.0014354802 -0.010268593 9.219563e-39
-0.017532473 -0.011088445 -0.0095653627 9.219563e-39
-0.0174651 -0.012647796 -0.0096924398 9.219563e-39
-0.017291926 -0.015878212 -0.010019073 9.219563e-39
-0.017402824 -0.009718989 -0.0098099019 9.219563e-39
-0.017479086 -0.017100111 -0.0096660592 9.219563e-39
-0.017417049 0.00339343 -0.0097830715 9.219563e-39
-0.017296499 0.0061686733 -0.010010449 9.219563e-39
-0.017478826 -0.0090419278 -0.00966655 9.219563e-39
-0.017508904 -0.0085963635 -0.0096098203 9.219563e-39
-0.01729461 0.011367893 -0.010014013 9.219563e-39
-0.017503433 -0.014064157 -0.0096201384 9.219563e-39
-0.017545331 0.0001914906 -0.0095411129 9.219563e-39
-0.017462011 0.00091067655 -0.0096982652 9.219563e-39
-0.017905327 -0.011293917 -0.0088621024 9.219563e-39
-0.017731203 -0.0049689887 -0.0091905268 9.219563e-39
-0.01767637 -0.005906696 -0.0092939492 9.219563e-39
-0.017426811 -0.00047062384 -0.0097646601 9.219563e-39
-0.017445287 0.0054491735 -0.0097298119 9.219563e-39
-0.017485959 -0.007073123 -0.0096530961 9.219563e-39
-0.017773088 -0.0073077753 -0.0091115236 9.219563e-39
-0.017590348 -0.0067034466 -0.0094562043 9.219563e-39
-0.018083258 -0.016492268 -0.0085264966 9.219563e-39
-0.017160997 0.0075580082 -0.010266029 9.219563e-39
-0.017767634 -0.013917924 -0.009121811 9.219563e-39
-0.017593049 -0.013126262 -0.009451109 9.219563e-39
-0.017440572 -0.0061749918 -0.0097387051 9.219563e-39
-0.01723839 0.0027328921 -0.010120053 9.219563e-39
-0.017409509 -0.0025961078 -0.0097972946 9.219563e-39
-0.017343592 -0.0037005953 -0.0099216234 9.219563e-39
-0.017398182 -0.013064751 -0.0098186582 9.219563e-39
-0.017571101 -0.0015477523 -0.0094925072 9.219563e-39
-0.017851682 -0.017220691 -0.0089632841 9.219563e-39
-0.017554725 -0.01547967 -0.0095233927 9.219563e-39
-0.01731097 -0.007710496 -0.0099831559 9.219563e-39
-0.018009143 -0.013691087 -0.0086662881 9.219563e-39
-0.01722692 -0.00022049079 -0.010141689 9.219563e-39
-0.01777743 -0.0094613954 -0.0091033354 9.219563e-39
-0.017530287 0.0027128363 -0.0095694894 9.219563e-39
-0.017490247 -0.0045496444 -0.0096450076 9.219563e-39
-0.017244406 0.0051615806 -0.010108704 9.219563e-39
-0.017192736 0.0087584108 -0.010206161 9.219563e-39
-0.017191844 0.012995704 -0.010207846 9.219563e-39
-0.017196218 0.01036048 -0.010199597 9.219563e-39
-0.017163726 -0.0070940955 -0.010260883 9.219563e-39
-0.01725422 -0.0090360893 -0.010090193 9.219563e-39
-0.017566312 -0.00077174994 -0.0095015382 9.219563e-39
-0.017667102 -0.017048769 -0.009311433 9.219563e-39
-0.017495124 -0.0020051387 -0.0096358098 9.219563e-39
-0.017592518 -0.010173932 -0.0094521111 9.219563e-39
-0.017864047 -0.010873801 -0.0089399638 9.219563e-39
-0.017321825 0.0095316451 -0.0099626798 9.219563e-39
-0.017763887 -0.0065438785 -0.0091288816 9.219563e-39
-0.017292226 0.0022143063 -0.010018511 9.219563e-39
-0.017578794 -0.0041378113 -0.0094779953 9.219563e-39
-0.017700197 -0.010501707 -0.0092490111 9.219563e-39
-0.017626906 -0.0097720129 -0.0093872482 9.219563e-39
-0.017342502 0.0090138707 -0.0099236779 9.219563e-39
-0.017181624 -0.0049741468 -0.010227121 9.219563e-39
-0.017661598 -0.0090023475 -0.0093218125 9.219563e-39
-0.01730023 -0.010242787 -0.010003414 9.219563e-39
-0.017662339 -0.011355284 -0.0093204146 9.219563e-39
-0.017308781 -0.011426492 -0.0099872826 9.219563e-39
-0.017714055 -0.0045171678 -0.0092228716 9.219563e-39
-0.017835163 -0.012264534 -0.0089944433 9.219563e-39
-0.017144654 -0.0085531082 -0.010296853 9.219563e-39
-0.017255794 -0.00065737829 -0.010087227 9.219563e-39
-0.017309671 -0.0021954668 -0.0099856025 9.219563e-39
-0.017341608 -0.013709065 -0.0099253654 9.219563e-39
-0.018064968 -0.015115296 -0.0085609909 9.219563e-39
-0.017242186 -0.0041281274 -0.010112891 9.219563e-39
-0.017630866 -0.0077867769 -0.0093797781 9.219563e-39
-0.017383974 -0.016316338 -0.009845458 9.219563e-39
-0.017357215 -0.015336669 -0.0098959282 9.219563e-39
-0.01789142 -0.016369283 -0.0088883322 9.219563e-39
-0.017488314 -0.011660189 -0.0096486565 9.219563e-39
-0.017580817 -0.015926305 -0.0094741788 9.219563e-39
-0.01761104 -0.00265546 -0.0094171744 9.219563e-39
-0.017509621 0.0023012378 -0.0096084671 9.219563e-39
-0.017356679 -0.0057318034 -0.0098969406 9.219563e-39
-0.017225221 -0.008200597 -0.01014489 9.219563e-39
-0.017797438 -0.0081468048 -0.0090655982 9.219563e-39
-0.017615618 -0.014693952 -0.0094085373 9.219563e-39
-0.017314279 0.014927473 -0.0099769123 9.219563e-39
-0.017960696 -0.0042297607 -0.0087576658 9.219563e-39
-0.017623901 0.0056116246 -0.0093929162 9.219563e-39
-0.018055219 0.0039846925 -0.0085793799 9.219563e-39
-0.018124752 0.012403249 -0.008448231 9.219563e-39
-0.01811097 -0.014610172 -0.0084742252 9.219563e-39
-0.017424786 0.010942481 -0.0097684786 9.219563e-39
-0.017968334 0.0057635382 -0.0087432591 9.219563e-39
-0.017953457 0.01256635 -0.008771318 9.219563e-39
-0.017322073 0.016503315 -0.0099622114 9.219563e-39
-0.018045528 -0.0087539647 -0.0085976608 9.219563e-39
-0.017516768 0.013414922 -0.0095949871 9.219563e-39
-0.018022543 -0.0081453715 -0.0086410129 9.219563e-39
-0.01778435 0.0098592453 -0.009090283 9.219563e-39
-0.018115923 0.0019490322 -0.0084648831 9.219563e-39
-0.017790243 0.0061357273 -0.0090791676 9.219563e-39
-0.01794661 0.015760893 -0.0087842345 9.219563e-39
-0.017852528 -0.0052917819 -0.0089616906 9.219563e-39
-0.018127453 -0.014025786 -0.0084431348 9.219563e-39
-0.017547008 0.0093272263 -0.0095379511 9.219563e-39
-0.017750323 0.0072617093 -0.0091544641 9.219563e-39
-0.017726108 0.010982879 -0.009200138 9.219563e-39
-0.017937537 -0.0074916831 -0.0088013466 9.219563e-39
-0.017746944 0.014541869 -0.0091608362 9.219563e-39
-0.017556956 0.0044034575 -0.0095191849 9.219563e-39
-0.017956732 -0.0020816675 -0.0087651433 9.219563e-39
-0.017760675 0.0131179 -0.009134938 9.219563e-39
-0.017416922 0.010225652 -0.0097833099 9.219563e-39
-0.018136462 0.0044532991 -0.008426141 9.219563e-39
-0.017746085 0.013541969 -0.0091624567 9.219563e-39
-0.017810317 0.00015429826 -0.0090413066 9.219563e-39
-0.017843934 0.0034484109 -0.0089778993 9.219563e-39
-0.017683232 0.0077168127 -0.0092810085 9.219563e-39
-0.017778939 0.0051140762 -0.0091004912 9.219563e-39
-0.017734617 0.0093455454 -0.0091840886 9.219563e-39
-0.017907852 0.0080501419 -0.0088573368 9.219563e-39
-0.018020455 0.0061559542 -0.0086449506 9.219563e-39
-0.017848317 0.016848424 -0.008969632 9.219563e-39
-0.017956605 0.012021138 -0.0087653836 9.219563e-39
-0.017504292 0.015029464 -0.0096185179 9.219563e-39
-0.017956184 0.0053532533 -0.0087661752 9.219563e-39
-0.018110069 0.017115181 -0.0084759248 9.219563e-39
-0.018052651 0.0068880953 -0.0085842256 9.219563e-39
-0.017545218 0.0039272392 -0.0095413243 9.219563e-39
-0.017978679 -0.0013407978 -0.0087237451 9.219563e-39
-0.018139957 0.013969799 -0.008419551 9.219563e-39
-0.017920991 0.006588011 -0.0088325543 9.219563e-39
-0.017985186 -0.0048881723 -0.0087114749 9.219563e-39
-0.017997935 0.00081963523 -0.0086874273 9.219563e-39
-0.017944509 0.0045151352 -0.0087881982 9.219563e-39
-0.017805457 -0.0027399608 -0.0090504726 9.219563e-39
-0.017587813 0.0060520088 -0.0094609829 9.219563e-39
-0.017495811 0.012741862 -0.0096345162 9.219563e-39
-0.01812784 -0.011544203 -0.0084424065 9.219563e-39
-0.018141383 0.0053690313 -0.0084168613 9.219563e-39
-0.017587814 0.011415424 -0.0094609819 9.219563e-39
-0.018063115 0.015316681 -0.008564488 9.219563e-39
-0.017603386 0.0083011081 -0.0094316108 9.219563e-39
-0.018113317 0.0012705667 -0.0084697986 9.219563e-39
-0.017738491 0.003818932 -0.0091767795 9.219563e-39
-0.017920753 -0.0036795179 -0.008833007 9.219563e-39
-0.017394217 0.016009187 -0.0098261386 9.219563e-39
-0.017854402 0.011462517 -0.0089581534 9.219563e-39
-0.017730124 0.0011889852 -0.0091925617 9.219563e-39
-0.017381413 0.013737736 -0.0098502887 9.219563e-39
-0.018036742 0.0026574496 -0.0086142318 9.219563e-39
-0.01720638 0.015961697 -0.01018043 9.219563e-39
-0.017366545 0.016957177 -0.0098783299 9.219563e-39
-0.018090762 0.013290156 -0.0085123396 9.219563e-39
-0.017686164 0.011773982 -0.0092754792 9.219563e-39
-0.017875496 -0.0061382037 -0.0089183655 9.219563e-39
-0.017694578 0.0031545542 -0.0092596095 9.219563e-39
-0.017210556 0.017305056 -0.010172551 9.219563e-39
-0.017601846 0.010133841 -0.0094345137 9.219563e-39
-0.018001743 0.0087028649 -0.0086802458 9.219563e-39
-0.018081259 -0.00029404633 -0.0085302647 9.219563e-39
-0.017692788 -0.0012248815 -0.0092629865 9.219563e-39
-0.017273912 0.01442932 -0.010053052 9.219563e-39
-0.017944833 -0.010121275 -0.0087875854 9.219563e-39
-0.018119628 -0.0061858646 -0.0084578972 9.219563e-39
-0.017891698 0.014188885 -0.0088878069 9.219563e-39
-0.017903129 0.0021888197 -0.0088662487 9.219563e-39
-0.017959794 -0.0092578279 -0.0087593691 9.219563e-39
-0.01796131 -0.0025050878 -0.0087565091 9.219563e-39
-0.017983483 0.0164693 -0.0087146843 9.219563e-39
-0.018044103 -0.010999338 -0.0086003477 9.219563e-39
-0.018136395 0.010625078 -0.0084262695 9.219563e-39
-0.017684396 0.016519031 -0.0092788106 9.219563e-39
-0.017748946 -0.0019148131 -0.0091570616 9.219563e-39
-0.017902406 -0.0031275149 -0.0088676102 9.219563e-39
-0.017692717 0.0086557511 -0.0092631178 9.219563e-39
-0.017994791 -0.00074855558 -0.0086933561 9.219563e-39
-0.018028496 -0.010484934 -0.0086297849 9.219563e-39
-0.017995603 0.00025764699 -0.0086918259 9.219563e-39
-0.018037066 0.004968958 -0.008613619 9.219563e-39
-0.017793806 -0.00069361861 -0.0090724491 9.219563e-39
-0.017945558 0.0016920384 -0.0087862192 9.219563e-39
-0.017291274 0.013382154 -0.010020305 9.219563e-39
-0.0174198 0.012180564 -0.0097778821 9.219563e-39
-0.017608792 0.014016077 -0.0094214156 9.219563e-39
-0.01792399 0.010581898 -0.0088269012 9.219563e-39
-0.01815006 -0.01278517 -0.0084004961 9.219563e-39
-0.0174824 0.0098223127 -0.0096598109 9.219563e-39
-0.017409097 0.015448608 -0.0097980695 9.219563e-39
-0.018008322 0.010081193 -0.0086678369 9.219563e-39
-0.017530022 0.006575759 -0.0095699867 9.219563e-39
-0.017504523 0.0073734559 -0.0096180839 9.219563e-39
-0.017947113 0.01472287 -0.0087832855 9.219563e-39
-0.017432174 0.011680193 -0.009754546 9.219563e-39
-0.018113256 0.0079870019 -0.0084699132 9.219563e-39
-0.017703479 0.010556916 -0.0092428187 9.219563e-39
-0.017837806 0.0027943561 -0.008989458 9.219563e-39
-0.018041322 0.0034716798 -0.0086055929 9.219563e-39
-0.017936351 0.0091674393 -0.0088035846 9.219563e-39
-0.017739741 0.0045227171 -0.0091744242 9.219563e-39
-0.018140567 -0.0093003651 -0.0084184008 9.219563e-39
-0.017502204 0.010583207 -0.0096224565 9.219563e-39
-0.017698422 0.0025184797 -0.0092523554 9.219563e-39
-0.017706661 0.015826439 -0.0092368182 9.219563e-39
-0.017712658 -0.00032507611 -0.0092255054 9.219563e-39
-0.018149581 -0.0045145233 -0.0084013985 9.219563e-39
-0.018026194 -0.0066504739 -0.0086341286 9.219563e-39
-0.017622853 0.015442141 -0.0093948944 9.219563e-39
-0.017698459 0.017279528 -0.0092522884 9.219563e-39
-0.017514082 0.014610601 -0.0096000535 9.219563e-39
-0.018270945 0.0011310853 -0.0080980137 9.219563e-39
-0.018484941 -0.0033852386 -0.0075609535 9.219563e-39
-0.018506782 -0.016148807 -0.0075061382 9.219563e-39
-0.018806094 -0.017406074 -0.0067549669 9.219563e-39
-0.018568659 -0.0016552787 -0.0073508481 9.219563e-39
-0.018162716 0.00055953732 -0.0083696274 9.219563e-39
-0.01829309 0.0072151008 -0.0080424352 9.219563e-39
-0.018201169 -0.00085011014 -0.0082731275 9.219563e-39
-0.018331306 -0.0087181367 -0.0079465257 9.219563e-39
-0.018351829 -0.0060628052 -0.0078950189 9.219563e-39
-0.018162724 0.0095339157 -0.0083696106 9.219563e-39
-0.0181851 -0.011910575 -0.0083134538 9.219563e-39
-0.018532895 -0.0078544812 -0.0074406038 9.219563e-39
-0.01854758 -0.0059822607 -0.0074037486 9.219563e-39
-0.018671537 -0.015178039 -0.0070926603 9.219563e-39
-0.01885605 -0.015831904 -0.0066295909 9.219563e-39
-0.018470166 -0.00050340407 -0.0075980304 9.219563e-39
-0.018535623 -0.0046884464 -0.0074337553 9.219563e-39
-0.018232603 0.0032103369 -0.0081942398 9.219563e-39
-0.018244974 0.0023453876 -0.0081631877 9.219563e-39
-0.018508635 -0.0095354756 -0.0075014867 9.219563e-39
-0.01823196 0.0060619265 -0.008195851 9.219563e-39
-0.018365225 -0.012964529 -0.0078614019 9.219563e-39
-0.018335456 0.0045214966 -0.0079361126 9.219563e-39
-0.018277597 -0.017170472 -0.0080813169 9.219563e-39
-0.018201584 0.0075885602 -0.0082720825 9.219563e-39
-0.018266806 -0.010888546 -0.0081083979 9.219563e-39
-0.018333877 0.0056144865 -0.0079400735 9.219563e-39
-0.018277936 -0.0031782694 -0.0080804685 9.219563e-39
-0.018460093 0.003027299 -0.007623313 9.219563e-39
-0.018359944 0.0033785864 -0.0078746518 9.219563e-39
-0.018405395 -0.0044008321 -0.0077605876 9.219563e-39
-0.018707853 -0.0077913865 -0.0070015197 9.219563e-39
-0.018410893 0.0015881935 -0.0077467882 9.219563e-39
-0.018216569 -0.0016902027 -0.0082344785 9.219563e-39
-0.018689437 -0.010650818 -0.007047737 9.219563e-39
-0.018196428 -0.010308902 -0.0082850261 9.219563e-39
-0.018517377 0.00088982965 -0.0074795508 9.219563e-39
-0.018720096 -0.014400309 -0.0069707916 9.219563e-39
-0.018262364 -0.015014052 -0.0081195477 9.219563e-39
-0.018482437 -0.0099725984 -0.0075672362 9.219563e-39
-0.018152965 -0.015919106 -0.0083941026 9.219563e-39
-0.018408582 -0.0018059367 -0.007752588 9.219563e-39
-0.018379563 -0.01439489 -0.0078254137 9.219563e-39
-0.018517852 -0.011999798 -0.0074783568 9.219563e-39
-0.018333662 -0.0065028979 -0.0079406099 9.219563e-39
-0.018272532 0.0002439472 -0.0080940304 9.219563e-39
-0.018399773 0.0020264611 -0.0077746948 9.219563e-39
-0.018222023 0.0048437794 -0.008220789 9.219563e-39
-0.018411092 -0.0037967665 -0.0077462886 9.219563e-39
-0.018247377 -0.0042147595 -0.0081571611 9.219563e-39
-0.018526435 -0.0041986038 -0.0074568149 9.219563e-39
-0.018316859 -0.012254596 -0.0079827821 9.219563e-39
-0.018467398 -0.0063542956 -0.0076049804 9.219563e-39
-0.018345872 -0.0078216856 -0.0079099694 9.219563e-39
-0.018408813 -0.008292987 -0.0077520106 9.219563e-39
-0.01830513 0.0078666173 -0.0080122156 9.219563e-39
-0.018405754 1.7146647e-05 -0.0077596847 9.219563e-39
-0.018338036 -0.010092779 -0.0079296371 9.219563e-39
-0.018183446 -0.0099001741 -0.0083176047 9.219563e-39
-0.018175283 -0.0049059996 -0.0083380919 9.219563e-39
-0.01828173 0.0083069215 -0.0080709457 9.219563e-39
-0.018208629 0.01010144 -0.0082544051 9.219563e-39
-0.01854014 -0.013160372 -0.0074224197 9.219563e-39
-0.018152539 -0.0074108364 -0.0083951708 9.219563e-39
-0.018830741 -0.015084415 -0.0066931089 9.219563e-39
-0.018542094 -0.0069017368 -0.0074175196 9.219563e-39
-0.018571587 -0.014726765 -0.0073435009 9.219563e-39
-0.018250044 -0.0055645285 -0.0081504676 9.219563e-39
-0.018551707 -0.0083969766 -0.0073933932 9.219563e-39
-0.01839296 -0.015251959 -0.0077917934 9.219563e-39
-0.018565619 -0.011225623 -0.0073584779 9.219563e-39
-0.018526118 -0.0020691184 -0.0074576098 9.219563e-39
-0.018201718 -0.0084825838 -0.0082717463 9.219563e-39
-0.018491786 -0.0073577873 -0.0075437739 9.219563e-39
-0.018865725 -0.01389803 -0.0066053141 9.219563e-39
-0.018152248 0.015903467 -0.0083959019 9.219563e-39
-0.018239651 -0.0026961721 -0.0081765512 9.219563e-39
-0.018189004 0.014877995 -0.0083036553 9.219563e-39
-0.018416304 -0.0049301661 -0.0077332095 9.219563e-39
-0.018271821 0.012180432 -0.0080958121 9.219563e-39
-0.018529115 -0.017081907 -0.0074500889 9.219563e-39
-0.018235063 -0.013605631 -0.0081880605 9.219563e-39
-0.018412549 -0.010572417 -0.0077426322 9.219563e-39
-0.018395577 0.0064072036 -0.0077852258 9.219563e-39
-0.018526224 -0.013574211 -0.0074573453 9.219563e-39
-0.018372241 -0.013777738 -0.0078437934 9.219563e-39
-0.018369453 -0.0096771847 -0.0078507885 9.219563e-39
-0.018237453 -0.00038219904 -0.0081820646 9.219563e-39
-0.018691987 -0.017013835 -0.0070413374 9.219563e-39
-0.018683728 -0.012216317 -0.0070620654 9.219563e-39
-0.018409479 -0.011504279 -0.0077503361 9.219563e-39
-0.0186476 -0.0049635433 -0.0071527348 9.219563e-39
-0.01824465 0.011207223 -0.0081640026 9.219563e-39
-0.018337261 -0.016311375 -0.0079315817 9.219563e-39
-0.018425601 -0.012527006 -0.0077098766 9.219563e-39
-0.018528182 -0.008877269 -0.0074524307 9.219563e-39
-0.018719876 -0.011252112 -0.0069713416 9.219563e-39
-0.018789088 -0.013488071 -0.0067976448 9.219563e-39
-0.018825961 -0.013084656 -0.0067051062 9.219563e-39
-0.018178806 -0.015439651 -0.0083292518 9.219563e-39
-0.018157853 0.014442995 -0.0083818352 9.219563e-39
-0.018900365 -0.01701922 -0.0065183798 9.219563e-39
-0.018711776 -0.016125901 -0.0069916751 9.219563e-39
-0.018358065 -0.0023800826 -0.0078793699 9.219563e-39
-0.018186333 0.0086234622 -0.0083103627 9.219563e-39
-0.01824886 0.0040678941 -0.0081534395 9.219563e-39
-0.018242307 -0.0068665226 -0.0081698848 9.219563e-39
-0.018632196 -0.01000153 -0.0071913931 9.219563e-39
-0.018719362 -0.012759022 -0.0069726328 9.219563e-39
-0.018205114 -0.0012636646 -0.0082632257 9.219563e-39
-0.018725157 -0.0082357237 -0.006958093 9.219563e-39
-0.018502077 -0.0028066442 -0.007517946 9.219563e-39
-0.018154655 0.011702958 -0.0083898641 9.219563e-39
-0.018571841 -0.013980463 -0.0073428648 9.219563e-39
-0.018868629 -0.014633676 -0.0065980242 9.219563e-39
-0.018756688 -0.011634015 -0.0068789609 9.219563e-39
-0.018404966 0.0052220402 -0.0077616642 9.219563e-39
-0.018252047 0.0065115108 -0.0081454394 9.219563e-39
-0.018699536 -0.0091038682 -0.0070223887 9.219563e-39
-0.018393295 -0.014806686 -0.0077909525 9.219563e-39
-0.018204164 0.0016283654 -0.0082656089 9.219563e-39
-0.018709721 -0.015736969 -0.0069968305 9.219563e-39
-0.018418143 -0.0056956508 -0.0077285925 9.219563e-39
-0.018298784 0.0088969097 -0.008028144 9.219563e-39
-0.018380282 -0.016861262 -0.0078236125 9.219563e-39
-0.018160913 -0.0034823441 -0.0083741564 9.219563e-39
-0.01847296 -0.0009453026 -0.0075910189 9.219563e-39
-0.018487478 -0.015725276 -0.0075545874 9.219563e-39
-0.018892828 0.0097747268 -0.0065372894 9.219563e-39
-0.018718902 0.013721637 -0.0069737895 9.219563e-39
-0.018889217 -0.0019592207 -0.006546353 9.219563e-39
-0.01887623 -0.0075610005 -0.0065789465 9.219563e-39
-0.018628804 0.012094358 -0.0071999063 9.219563e-39
-0.018243443 0.016775103 -0.0081670322 9.219563e-39
-0.018481445 0.017277019 -0.007569727 9.219563e-39
-0.018827999 -0.00097587873 -0.0066999909 9.219563e-39
-0.018526422 0.0059153689 -0.0074568498 9.219563e-39
-0.018697094 0.015819527 -0.0070285201 9.219563e-39
-0.018749274 -0.0068073347 -0.0068975659 9.219563e-39
-0.018370396 0.0092642689 -0.007848423 9.219563e-39
-0.01855254 0.0098128403 -0.007391301 9.219563e-39
-0.018705292 0.0037786872 -0.0070079453 9.219563e-39
