# .PCD v0.7 - Point Cloud Data file format
VERSION 0.7
FIELDS x y z rgb
SIZE 4 4 4 4
TYPE F F F F
COUNT 1 1 1 1
WIDTH 959
HEIGHT 1
VIEWPOINT 0 0 0 1 0 0 0
POINTS 959
DATA ascii
0.010030528 0.018465647 0.072866879 9.219563e-39
-0.00069160259 0.018366942 0.07497333 9.219563e-39
-0.0029292789 0.018365221 0.074802272 9.219563e-39
-0.009724034 0.018400528 0.073012426 9.219563e-39
-0.014298429 0.018490745 0.070488527 9.219563e-39
-0.01639773 0.018389946 0.068860941 9.219563e-39
-0.021319326 0.018327165 0.063068479 9.219563e-39
-0.023467453 0.018322378 0.058590379 9.219563e-39
-0.024387041 0.018310625 0.055547599 9.219563e-39
-0.024170132 0.018490519 0.056259856 9.219563e-39
-0.01668107 0.018349169 0.031398542 9.219563e-39
-0.014856339 0.018452512 0.029933073 9.219563e-39
-0.0089764763 0.018408885 0.026677238 9.219563e-39
-0.0049978439 0.018435985 0.025535738 9.219563e-39
-0.0016948644 0.018382419 0.025066204 9.219563e-39
-0.0061955126 0.018336803 0.025787715 9.219563e-39
0.0030524931 0.018349826 0.025208686 9.219563e-39
0.014225581 0.018404955 0.029450389 9.219563e-39
0.01845273 0.018324664 0.033138245 9.219563e-39
0.021482285 0.018397748 0.037214525 9.219563e-39
0.017154334 0.018228019 0.068189204 9.219563e-39
0.015453209 0.018286033 0.069639511 9.219563e-39
-0.0086751916 0.018287973 0.073443435 9.219563e-39
-0.019175587 0.018192943 0.066059619 9.219563e-39
-0.024632487 0.018214563 0.054313947 9.219563e-39
-0.025000336 0.018273909 0.049512539 9.219563e-39
-0.020259565 0.01825761 0.035342183 9.219563e-39
-0.013272021 0.018261136 0.028816819 9.219563e-39
-0.010454197 0.01827861 0.027303105 9.219563e-39
-3.7698028e-05 0.018273007 0.025009701 9.219563e-39
0.0083932094 0.018283704 0.026460348 9.219563e-39
0.02492637 0.018094808 0.052788191 9.219563e-39
0.024254449 0.018156683 0.056186225 9.219563e-39
0.018552721 0.018108899 0.066842362 9.219563e-39
0.012192458 0.018141761 0.071876682 9.219563e-39
0.010744545 0.018172327 0.072596267 9.219563e-39
0.008790005 0.018106487 0.073466323 9.219563e-39
0.0047913855 0.018147437 0.074573427 9.219563e-39
-0.0018932841 0.018160405 0.074965589 9.219563e-39
-0.011398617 0.018152988 0.072301842 9.219563e-39
-0.021780698 0.018097801 0.062391762 9.219563e-39
-0.023047339 0.018178908 0.059743408 9.219563e-39
-0.023819402 0.018148202 0.057765286 9.219563e-39
-0.024997396 0.01813372 0.051356729 9.219563e-39
-0.024558932 0.018130794 0.045056015 9.219563e-39
-0.024042692 0.018116631 0.04299368 9.219563e-39
-0.021903884 0.018152224 0.037885074 9.219563e-39
-0.021316368 0.018098541 0.036805961 9.219563e-39
-0.017923852 0.018140582 0.0324995 9.219563e-39
-0.00812665 0.018126069 0.026318058 9.219563e-39
-0.0030361249 0.018173132 0.025163585 9.219563e-39
0.0072405562 0.018180696 0.026041629 9.219563e-39
0.01556193 0.018165946 0.03039914 9.219563e-39
0.019796623 0.018116007 0.034626238 9.219563e-39
0.024005644 0.018147564 0.04290466 9.219563e-39
0.024557404 0.018153394 0.045100134 9.219563e-39
0.024924263 0.018159488 0.047477264 9.219563e-39
0.023929175 0.018001486 0.057623155 9.219563e-39
0.020765023 0.018093038 0.064011067 9.219563e-39
0.0063217222 0.018090138 0.074259505 9.219563e-39
-0.0052642142 0.018062679 0.074506536 9.219563e-39
-0.015784442 0.018079545 0.069475487 9.219563e-39
-0.017258264 0.018081762 0.068164036 9.219563e-39
-0.019807464 0.018054685 0.065404758 9.219563e-39
0.0055551049 0.018079557 0.025566261 9.219563e-39
0.017476736 0.018077394 0.03203984 9.219563e-39
0.018977581 0.018039145 0.033606052 9.219563e-39
0.025090374 0.018034812 0.049522381 9.219563e-39
0.025077546 0.018066477 0.050416823 9.219563e-39
0.024864482 0.017970294 0.053581428 9.219563e-39
0.019865196 0.017949674 0.065430105 9.219563e-39
-0.0071318392 0.017937437 0.074123241 9.219563e-39
-0.013708773 0.01793853 0.071087971 9.219563e-39
-0.024937812 0.017941063 0.053251442 9.219563e-39
-0.025039764 0.017924875 0.047363017 9.219563e-39
-0.022529222 0.01794236 0.03883528 9.219563e-39
-0.015568999 0.017997358 0.030307706 9.219563e-39
0.010487803 0.017969823 0.027177684 9.219563e-39
0.022073116 0.017912444 0.037933569 9.219563e-39
0.025059255 0.017976765 0.048343863 9.219563e-39
0.023395849 0.017876284 0.059317838 9.219563e-39
0.023786068 0.017834295 0.058430228 9.219563e-39
0.016495874 0.017860493 0.069079511 9.219563e-39
0.00031625069 0.017892253 0.075170144 9.219563e-39
-0.0060766432 0.017838946 0.074479274 9.219563e-39
-0.0079630371 0.017873764 0.073893264 9.219563e-39
-0.012777122 0.017833604 0.071742594 9.219563e-39
-0.020715265 0.017909588 0.064273968 9.219563e-39
-0.025123022 0.017846763 0.052231438 9.219563e-39
-0.019614367 0.017891819 0.03421158 9.219563e-39
-0.011398503 0.017888904 0.027537122 9.219563e-39
0.00097915938 0.017843934 0.024790749 9.219563e-39
0.0018839521 0.017890124 0.0248846 9.219563e-39
0.011236073 0.017855845 0.027432522 9.219563e-39
0.013656702 0.017834667 0.02878763 9.219563e-39
0.023570126 0.01786755 0.041100506 9.219563e-39
0.024882242 0.017775908 0.054451983 9.219563e-39
0.021429891 0.017782584 0.063419335 9.219563e-39
0.014599582 0.017826678 0.070586428 9.219563e-39
0.013927884 0.017815523 0.071070693 9.219563e-39
0.0039231936 0.017799215 0.074973673 9.219563e-39
-0.02493274 0.017760348 0.045759927 9.219563e-39
-0.023983359 0.017826801 0.04209533 9.219563e-39
-0.0073973639 0.017793974 0.025840627 9.219563e-39
-0.004262378 0.017801993 0.025085116 9.219563e-39
0.02133592 0.017818514 0.036505975 9.219563e-39
0.02263429 0.017825587 0.038839947 9.219563e-39
0.023959989 0.017830778 0.042026021 9.219563e-39
0.024925957 0.017822854 0.046104196 9.219563e-39
0.024810392 0.017725093 0.055250019 9.219563e-39
0.025244934 0.01774177 0.05192956 9.219563e-39
0.022445105 0.017712846 0.061779257 9.219563e-39
0.0011029523 0.01773048 0.075326256 9.219563e-39
-0.0041220728 0.017727638 0.075028822 9.219563e-39
-0.014685021 0.01774065 0.070634238 9.219563e-39
-0.018209597 0.017732829 0.067631885 9.219563e-39
-0.018910062 0.017728845 0.066861287 9.219563e-39
-0.023090005 0.017732307 0.039533701 9.219563e-39
-0.01232816 0.017712316 0.027834287 9.219563e-39
0.0041748472 0.01775044 0.025011552 9.219563e-39
0.0097554689 0.017735641 0.026614923 9.219563e-39
0.020872442 0.017749878 0.03569736 9.219563e-39
0.023150101 0.017728649 0.039672341 9.219563e-39
0.02293371 0.017647792 0.061057035 9.219563e-39
0.019388171 0.01767985 0.066396974 9.219563e-39
0.01844801 0.017639246 0.067586668 9.219563e-39
0.0075083892 0.017642481 0.074325472 9.219563e-39
-0.00099932519 0.017663242 0.075417608 9.219563e-39
-0.019715898 0.017636713 0.066113591 9.219563e-39
-0.023073077 0.017634099 0.060839143 9.219563e-39
-0.024303783 0.017689457 0.057324234 9.219563e-39
-0.025390228 0.017683521 0.050617546 9.219563e-39
-0.025374493 0.017683499 0.049091592 9.219563e-39
-0.024612198 0.01766412 0.043640982 9.219563e-39
-0.015204893 0.017674524 0.029652294 9.219563e-39
0.0034577127 0.01764912 0.024786688 9.219563e-39
0.0062954938 0.017676551 0.02538063 9.219563e-39
0.02200312 0.01765959 0.037226453 9.219563e-39
0.025443161 0.01763124 0.05114812 9.219563e-39
0.020880578 0.017610215 0.064659305 9.219563e-39
0.015785579 0.017590569 0.070091516 9.219563e-39
0.013161215 0.017621204 0.071826756 9.219563e-39
0.009353268 0.017601384 0.073785074 9.219563e-39
-0.022713713 0.017610703 0.061614729 9.219563e-39
-0.023867888 0.017604355 0.059045304 9.219563e-39
-0.024869978 0.017591937 0.055911906 9.219563e-39
-0.025078276 0.017586617 0.054991767 9.219563e-39
-0.025472971 0.017595662 0.048113473 9.219563e-39
-0.023640411 0.017614812 0.040439121 9.219563e-39
-0.013829301 0.017588869 0.028501242 9.219563e-39
-0.0066841533 0.017599624 0.02533013 9.219563e-39
0.0131219 0.017612062 0.028128682 9.219563e-39
0.024824858 0.017613312 0.044082262 9.219563e-39
-0.015699971 0.017550718 0.070283249 9.219563e-39
-0.02355036 0.017565418 0.06008457 9.219563e-39
-0.025306642 0.017564939 0.053946201 9.219563e-39
-0.024554605 0.017550383 0.042562153 9.219563e-39
-0.020519588 0.017555146 0.034580465 9.219563e-39
-0.01072403 0.017555185 0.026713682 9.219563e-39
-0.0057230927 0.017585179 0.025088729 9.219563e-39
-0.0016630911 0.017557673 0.02439921 9.219563e-39
0.015088634 0.017585993 0.029366985 9.219563e-39
0.017562034 0.017552098 0.031311721 9.219563e-39
0.025593461 0.017562395 0.048848264 9.219563e-39
0.025580624 0.017539958 0.052653313 9.219563e-39
0.02470083 0.017528437 0.05721179 9.219563e-39
0.017406901 0.017526982 0.068959534 9.219563e-39
0.0033219291 0.017528715 0.075519204 9.219563e-39
-0.00027567567 0.01752677 0.075736083 9.219563e-39
-0.0092994161 0.01753079 0.074008428 9.219563e-39
-0.010686249 0.017528666 0.073405094 9.219563e-39
-0.024140453 0.017541962 0.04121054 9.219563e-39
-0.022839077 0.017523911 0.038112648 9.219563e-39
-0.018903334 0.017540932 0.032582775 9.219563e-39
-0.017398452 0.017526047 0.031027645 9.219563e-39
-0.016145565 0.01753491 0.02998382 9.219563e-39
-0.0099943122 0.017536812 0.02630833 9.219563e-39
0.0071081086 0.017525107 0.025230756 9.219563e-39
0.016200822 0.017546391 0.03007976 9.219563e-39
0.019775663 0.017524334 0.033513881 9.219563e-39
0.02460153 0.017525394 0.042388003 9.219563e-39
0.023874423 0.017509423 0.059872054 9.219563e-39
0.019257573 0.01750925 0.067233145 9.219563e-39
0.011297523 0.01751787 0.073178127 9.219563e-39
0.0059095654 0.017520756 0.075077377 9.219563e-39
-0.0032179437 0.017506421 0.075654149 9.219563e-39
-0.007744242 0.017506523 0.074669696 9.219563e-39
-0.016411137 0.017517056 0.069913693 9.219563e-39
-0.01750499 0.017510893 0.068988241 9.219563e-39
-0.025311364 0.017512588 0.044839188 9.219563e-39
-0.019766508 0.017513767 0.033409957 9.219563e-39
-0.0025798529 0.017515626 0.024334723 9.219563e-39
0.014622769 0.017518755 0.028740278 9.219563e-39
0.017003173 0.017508009 0.030511428 9.219563e-39
0.019248499 0.017511029 0.032773487 9.219563e-39
0.024840636 0.01752181 0.043198265 9.219563e-39
0.025694361 0.017513866 0.04726306 9.219563e-39
0.025696263 0.017501766 0.053527113 9.219563e-39
0.025073001 0.01750469 0.056405861 9.219563e-39
0.021681787 0.017500136 0.064279579 9.219563e-39
0.010596545 0.017501879 0.07366398 9.219563e-39
0.0023590077 0.017504185 0.075778522 9.219563e-39
-0.0017446271 0.017500682 0.07591223 9.219563e-39
-0.0065289638 0.017502472 0.075098209 9.219563e-39
-0.012671894 0.017500311 0.072667629 9.219563e-39
-0.022118881 0.017502129 0.063567534 9.219563e-39
-0.025024451 0.017501561 0.056802657 9.219563e-39
-0.025873948 0.017502815 0.051338583 9.219563e-39
-0.02560742 0.017503951 0.046187241 9.219563e-39
-0.022319419 0.017504284 0.036846779 9.219563e-39
-0.0090850089 0.017502362 0.025712412 9.219563e-39
-0.00091993075 0.017500199 0.024041899 9.219563e-39
0.0051255343 0.017503615 0.0246151 9.219563e-39
0.0085360659 0.017505083 0.025581934 9.219563e-39
0.010569107 0.017504647 0.026381196 9.219563e-39
0.024270529 0.017502001 0.04087593 9.219563e-39
0.023930864 0.020499961 0.051288549 9.219563e-39
0.02362676 0.020487836 0.054917745 9.219563e-39
0.023998281 0.020494374 0.048026074 9.219563e-39
0.022895137 0.020487586 0.057670444 9.219563e-39
0.017307771 0.020499811 0.066619746 9.219563e-39
0.013218741 0.020496408 0.070094354 9.219563e-39
0.010493921 0.020486008 0.071724191 9.219563e-39
0.0055891261 0.020480432 0.073505759 9.219563e-39
0.0045019607 0.020498967 0.073567621 9.219563e-39
-0.0029613916 0.020497451 0.073832706 9.219563e-39
-0.0071945949 0.020479679 0.073073 9.219563e-39
-0.0094218124 0.020499134 0.07206437 9.219563e-39
-0.019084511 0.020499935 0.064551674 9.219563e-39
-0.019881526 0.020495724 0.063525282 9.219563e-39
-0.022592807 0.020498471 0.058120254 9.219563e-39
-0.024017751 0.020496298 0.05097023 9.219563e-39
-0.023584621 0.020499991 0.045728527 9.219563e-39
-0.022872753 0.020495569 0.042487424 9.219563e-39
-0.02103998 0.020497968 0.038441084 9.219563e-39
-0.01933114 0.020485109 0.035516206 9.219563e-39
-0.015987143 0.020497549 0.032070171 9.219563e-39
-0.014143232 0.020478804 0.030393152 9.219563e-39
-0.0036156836 0.020494392 0.026181431 9.219563e-39
-0.0048792674 0.020481519 0.026344987 9.219563e-39
0.0011232521 0.020499609 0.026027789 9.219563e-39
0.0048841545 0.020498864 0.026514521 9.219563e-39
0.0092139067 0.020497216 0.027799329 9.219563e-39
0.011770506 0.020479158 0.028879292 9.219563e-39
0.018068099 0.020493222 0.034079961 9.219563e-39
0.018522881 0.020499961 0.034787882 9.219563e-39
0.021822363 0.020489518 0.039709393 9.219563e-39
0.022314005 0.02048024 0.040733915 9.219563e-39
0.023161046 0.020489825 0.043339968 9.219563e-39
0.023791388 0.020478267 0.045714259 9.219563e-39
0.02411923 0.020468032 0.052330751 9.219563e-39
0.021713523 0.020463282 0.060767658 9.219563e-39
0.015313742 0.020473341 0.068745002 9.219563e-39
0.00082502462 0.020462936 0.074229129 9.219563e-39
-0.023660418 0.020465059 0.055319663 9.219563e-39
0.0083552841 0.02046416 0.027252574 9.219563e-39
0.021271745 0.020470943 0.038460229 9.219563e-39
0.024176279 0.020472011 0.04899624 9.219563e-39
0.024127187 0.020418754 0.053387072 9.219563e-39
0.022600487 0.020433584 0.058979083 9.219563e-39
0.021362739 0.020440161 0.061587207 9.219563e-39
0.019153852 0.020434335 0.065011919 9.219563e-39
0.0019693153 0.020443933 0.074221045 9.219563e-39
-0.014189394 0.020422876 0.069796108 9.219563e-39
-0.016967759 0.02041701 0.067483753 9.219563e-39
-0.021416286 0.020442793 0.061471634 9.219563e-39
-0.022290278 0.02041477 0.059889603 9.219563e-39
-0.023407634 0.020419605 0.05673068 9.219563e-39
-0.020869408 0.020434892 0.037453081 9.219563e-39
-0.020338625 0.020439884 0.036691736 9.219563e-39
-0.018755585 0.020420343 0.034463104 9.219563e-39
-0.016945126 0.020425584 0.032525465 9.219563e-39
-0.0076159709 0.020423148 0.026875395 9.219563e-39
-0.0018289252 0.020438312 0.025749024 9.219563e-39
0.024114585 0.020435845 0.046810191 9.219563e-39
0.024369385 0.020416535 0.050542958 9.219563e-39
0.020919418 0.020374075 0.062711418 9.219563e-39
0.0093197925 0.020408509 0.072551779 9.219563e-39
0.0083446819 0.020383263 0.072968058 9.219563e-39
-0.0013136346 0.020383719 0.074429333 9.219563e-39
-0.010282204 0.020412646 0.072097562 9.219563e-39
-0.016257735 0.020374417 0.068274431 9.219563e-39
-0.021942435 0.020400699 0.06069506 9.219563e-39
-0.023978142 0.020407919 0.054448016 9.219563e-39
-0.0059085945 0.020404035 0.026327237 9.219563e-39
0.0040897718 0.020401973 0.025922745 9.219563e-39
0.0076877004 0.020397006 0.026839027 9.219563e-39
0.010276912 0.020403625 0.027880497 9.219563e-39
0.013753036 0.020404447 0.029819321 9.219563e-39
0.017371099 0.020369714 0.032767545 9.219563e-39
0.024178199 0.020311264 0.054256007 9.219563e-39
0.020436712 0.02031864 0.063581318 9.219563e-39
0.011496853 0.020343581 0.071673699 9.219563e-39
0.0029260225 0.020333048 0.074341044 9.219563e-39
-0.002186571 0.020332022 0.07442309 9.219563e-39
-0.0085279271 0.020329425 0.0730014 9.219563e-39
-0.017623654 0.020355398 0.067025699 9.219563e-39
-0.02117373 0.020324174 0.062427465 9.219563e-39
-0.02452088 0.02032545 0.049232878 9.219563e-39
-0.024012027 0.020325627 0.044867039 9.219563e-39
-0.02355296 0.020333288 0.043197274 9.219563e-39
-0.023021035 0.020343639 0.0415911 9.219563e-39
-0.022164391 0.020343181 0.039503481 9.219563e-39
-0.017889805 0.020332273 0.033192437 9.219563e-39
-0.012819152 0.020335151 0.029106736 9.219563e-39
-0.0091526061 0.020316852 0.027195746 9.219563e-39
0.0026206111 0.020365847 0.025676457 9.219563e-39
0.016485246 0.020339182 0.031861547 9.219563e-39
0.019810375 0.020344637 0.03556611 9.219563e-39
0.023866726 0.020315897 0.044227537 9.219563e-39
0.016539019 0.020258412 0.068237349 9.219563e-39
-0.011223617 0.020302679 0.071867973 9.219563e-39
-0.013316551 0.020273333 0.070692234 9.219563e-39
-0.023037691 0.020244356 0.058726314 9.219563e-39
-0.024482323 0.020308254 0.048037127 9.219563e-39
-0.013717514 0.020291066 0.029574567 9.219563e-39
0.02036765 0.020243749 0.036147118 9.219563e-39
-6.1604578e-06 0.020238519 0.074637577 9.219563e-39
-0.015022294 0.020185148 0.069595367 9.219563e-39
-0.018926334 0.020180989 0.065863803 9.219563e-39
-0.023370886 0.020205963 0.057994388 9.219563e-39
-0.024682524 0.020210212 0.050359037 9.219563e-39
-0.010404786 0.020183356 0.027606521 9.219563e-39
-0.0026030168 0.020225745 0.02548741 9.219563e-39
-0.00039054549 0.020240953 0.025364855 9.219563e-39
0.0092183072 0.020215387 0.027092883 9.219563e-39
0.023230514 0.020159412 0.058467306 9.219563e-39
0.018006355 0.02009204 0.067060962 9.219563e-39
0.013524755 0.020115228 0.070747584 9.219563e-39
0.0072454978 0.020138521 0.07365644 9.219563e-39
0.003720351 0.020097436 0.074506253 9.219563e-39
-0.0046742898 0.020089883 0.074335054 9.219563e-39
-0.0068302951 0.020131942 0.073801965 9.219563e-39
-0.015689585 0.020164534 0.069112882 9.219563e-39
-0.024373697 0.020102005 0.045620449 9.219563e-39
-0.022778684 0.020163836 0.040408276 9.219563e-39
-0.020261588 0.020148251 0.035827536 9.219563e-39
-0.012270382 0.020091617 0.028475352 9.219563e-39
0.018200595 0.020145629 0.033234105 9.219563e-39
0.02117404 0.020089846 0.037089016 9.219563e-39
0.02304842 0.020128064 0.041007102 9.219563e-39
0.01023228 0.020062011 0.072579898 9.219563e-39
0.0090064378 0.020013794 0.07315708 9.219563e-39
-0.0036392617 0.020039167 0.074554652 9.219563e-39
-0.012389456 0.020009577 0.071515732 9.219563e-39
-0.019679537 0.020025266 0.065159738 9.219563e-39
-0.021034755 0.020075627 0.063133426 9.219563e-39
-0.024781052 0.020020222 0.051325072 9.219563e-39
-0.023601586 0.020012284 0.04222393 9.219563e-39
-0.01488508 0.020065274 0.030179232 9.219563e-39
-0.011335825 0.02008336 0.027945887 9.219563e-39
-0.003499713 0.020053023 0.02543921 9.219563e-39
0.0052242689 0.020057637 0.025764244 9.219563e-39
0.0068454174 0.020070648 0.026153736 9.219563e-39
0.022119543 0.020054678 0.038789175 9.219563e-39
0.024418537 0.020009751 0.045509957 9.219563e-39
0.024742689 0.020068763 0.048548717 9.219563e-39
0.024785936 0.020028001 0.051141951 9.219563e-39
0.024096349 0.019946327 0.056125846 9.219563e-39
0.022300275 0.019930519 0.061021008 9.219563e-39
0.017408716 0.01999891 0.067711048 9.219563e-39
0.01460635 0.019987404 0.070093825 9.219563e-39
0.012255246 0.019915802 0.071653694 9.219563e-39
0.011105505 0.019937007 0.072255448 9.219563e-39
0.0050278227 0.019944923 0.074345917 9.219563e-39
-0.017052453 0.01994192 0.031911518 9.219563e-39
0.000718617 0.019981904 0.025161207 9.219563e-39
0.011284516 0.019964427 0.027842728 9.219563e-39
0.012135081 0.01996094 0.028300775 9.219563e-39
0.019105237 0.01999961 0.034138534 9.219563e-39
0.023777863 0.01988613 0.057377625 9.219563e-39
0.019867579 0.019832078 0.065077759 9.219563e-39
0.018838894 0.019898606 0.066252731 9.219563e-39
0.012928246 0.019896956 0.071258567 9.219563e-39
0.0064871069 0.019896153 0.074048728 9.219563e-39
0.0022440471 0.01989357 0.074784696 9.219563e-39
-0.0060433159 0.019816451 0.074177742 9.219563e-39
-0.0077042668 0.019873552 0.073668703 9.219563e-39
-0.021924956 0.019826194 0.061820749 9.219563e-39
-0.024156829 0.019893458 0.056002285 9.219563e-39
-0.024637159 0.019875748 0.053562086 9.219563e-39
-0.019979147 0.019834725 0.035088591 9.219563e-39
-0.0083720926 0.019840166 0.026542779 9.219563e-39
0.0035211891 0.01988532 0.025351033 9.219563e-39
0.013951275 0.019842381 0.029332571 9.219563e-39
0.017318429 0.01980947 0.032087479 9.219563e-39
0.024897186 0.019882495 0.049527165 9.219563e-39
0.024804404 0.019864362 0.047687065 9.219563e-39
0.015939664 0.019763507 0.069194168 9.219563e-39
-0.014210865 0.019782152 0.070502102 9.219563e-39
-0.018425051 0.019790087 0.066800877 9.219563e-39
-0.023037583 0.019743821 0.059538484 9.219563e-39
-0.024837438 0.019803738 0.052121781 9.219563e-39
-0.021713277 0.019719968 0.037715077 9.219563e-39
-0.018929975 0.019713247 0.03376184 9.219563e-39
-0.015781347 0.019770371 0.030687792 9.219563e-39
-0.0075688483 0.019751679 0.026243338 9.219563e-39
-0.0051494795 0.019808497 0.025622429 9.219563e-39
-0.0064725685 0.019722324 0.025890075 9.219563e-39
0.0021982074 0.019805379 0.025176685 9.219563e-39
0.0082729952 0.019713962 0.026469972 9.219563e-39
0.015387109 0.019759785 0.030384531 9.219563e-39
0.021864325 0.019778516 0.038033415 9.219563e-39
0.024533672 0.019624801 0.054600004 9.219563e-39
0.023172107 0.019688454 0.059235081 9.219563e-39
-0.0093452055 0.019692874 0.073160529 9.219563e-39
-0.017521132 0.019649556 0.067770712 9.219563e-39
-0.020162581 0.019648317 0.064723372 9.219563e-39
-0.024860973 0.019667758 0.047721986 9.219563e-39
-0.024661271 0.019641975 0.04619519 9.219563e-39
-0.024401652 0.019652065 0.044624235 9.219563e-39
-0.020811047 0.019614816 0.036223594 9.219563e-39
0.010473325 0.01965108 0.027354097 9.219563e-39
0.012828297 0.019610344 0.02859238 9.219563e-39
0.023576831 0.019679509 0.041776929 9.219563e-39
0.020377383 0.019566886 0.064422444 9.219563e-39
0.01942778 0.019571474 0.06568227 9.219563e-39
0.017056268 0.019533284 0.068226054 9.219563e-39
0.00083262904 0.019543068 0.074961074 9.219563e-39
-0.0020505348 0.019529415 0.074885964 9.219563e-39
-0.010080487 0.01954191 0.072839357 9.219563e-39
-0.013470232 0.019503472 0.071028605 9.219563e-39
-0.023396287 0.019518351 0.058720369 9.219563e-39
-0.02493453 0.019560985 0.048852041 9.219563e-39
-0.023422401 0.019601457 0.041356925 9.219563e-39
-0.016414328 0.019572154 0.031168675 9.219563e-39
-0.014062147 0.019563654 0.029336641 9.219563e-39
-0.0090601454 0.019563612 0.02671399 9.219563e-39
-0.0018149486 0.019539898 0.025088949 9.219563e-39
0.020143596 0.019556619 0.03523178 9.219563e-39
0.024390973 0.019595331 0.04455588 9.219563e-39
0.02497549 0.019588098 0.050366428 9.219563e-39
-0.023194153 -0.018433256 0.05923979 9.219563e-39
-0.021791443 -0.018341426 0.062220912 9.219563e-39
-0.013324309 -0.018340457 0.071133189 9.219563e-39
-0.0081213536 -0.018379338 0.073614322 9.219563e-39
-0.0056074751 -0.018392008 0.074332796 9.219563e-39
-0.0022484926 -0.018292461 0.074887909 9.219563e-39
0.004928017 -0.018481033 0.074477218 9.219563e-39
0.0074824695 -0.018298641 0.073843054 9.219563e-39
0.011941842 -0.018304251 0.071971618 9.219563e-39
0.015500418 -0.01846002 0.069576837 9.219563e-39
0.018707396 -0.018432751 0.066541635 9.219563e-39
0.02021762 -0.018334731 0.064691231 9.219563e-39
0.021948241 -0.018484278 0.061896887 9.219563e-39
0.022483664 -0.018317973 0.060923081 9.219563e-39
0.023609193 -0.018457687 0.058194596 9.219563e-39
0.024546729 -0.018469552 0.054583687 9.219563e-39
0.024992248 -0.018483972 0.049841475 9.219563e-39
0.024247926 -0.018420871 0.04400662 9.219563e-39
0.02271837 -0.018393142 0.039559662 9.219563e-39
0.021972101 -0.01841501 0.038140327 9.219563e-39
0.018806051 -0.018389622 0.033570055 9.219563e-39
0.01787108 -0.018486561 0.032542426 9.219563e-39
0.016257001 -0.018363319 0.030999953 9.219563e-39
0.014506338 -0.018308613 0.029646033 9.219563e-39
0.0055567138 -0.018403206 0.025657006 9.219563e-39
0.0037442097 -0.018334726 0.025281498 9.219563e-39
-0.0096056638 -0.018473953 0.026937049 9.219563e-39
-0.015722021 -0.018304743 0.030569365 9.219563e-39
-0.017560819 -0.018371573 0.032236736 9.219563e-39
-0.02251789 -0.01843301 0.039171789 9.219563e-39
-0.024234256 -0.018435201 0.04396021 9.219563e-39
-0.024949942 -0.018282859 0.051372591 9.219563e-39
-0.023879951 -0.018263072 0.057413746 9.219563e-39
-0.016810674 -0.018279649 0.068495706 9.219563e-39
0.00017199581 -0.018250275 0.074996367 9.219563e-39
0.012653492 -0.018211618 0.071570784 9.219563e-39
0.014449044 -0.018202871 0.070430778 9.219563e-39
0.02105166 -0.018212177 0.06351126 9.219563e-39
0.024961501 -0.018193709 0.051599026 9.219563e-39
0.012187741 -0.018243983 0.028159078 9.219563e-39
-0.0034067063 -0.018230356 0.02522137 9.219563e-39
-0.0023693782 -0.018234035 0.025109543 9.219563e-39
-0.0042092735 -0.018196417 0.025317006 9.219563e-39
-0.016575884 -0.018205836 0.031254698 9.219563e-39
-0.020601844 -0.018227182 0.035832487 9.219563e-39
-0.024475502 -0.018229444 0.04475306 9.219563e-39
-0.024946127 -0.018249692 0.048393808 9.219563e-39
-0.017628517 -0.018166607 0.067766488 9.219563e-39
-0.006389353 -0.018118257 0.074233159 9.219563e-39
0.0035649452 -0.018119667 0.074799508 9.219563e-39
0.017332207 -0.018131409 0.068065822 9.219563e-39
0.021662809 -0.018114218 0.062600717 9.219563e-39
0.023957083 -0.018116653 0.042685337 9.219563e-39
0.023340944 -0.018110357 0.040922537 9.219563e-39
0.010052883 -0.018146636 0.027072879 9.219563e-39
0.0088733938 -0.018186959 0.026594305 9.219563e-39
0.0063893078 -0.01814596 0.025777722 9.219563e-39
0.0014367355 -0.018160699 0.024984868 9.219563e-39
-0.00047501927 -0.018150039 0.024972077 9.219563e-39
-0.0014456684 -0.018119399 0.024969894 9.219563e-39
-0.0056403861 -0.018123904 0.025604185 9.219563e-39
-0.012727321 -0.018126737 0.028438395 9.219563e-39
-0.023316225 -0.018104827 0.040854745 9.219563e-39
-0.016156726 -0.018060369 0.069204733 9.219563e-39
0.0013149289 -0.018037446 0.075078078 9.219563e-39
0.023180671 -0.018062042 0.05954029 9.219563e-39
0.024413681 -0.018089877 0.055709895 9.219563e-39
0.023676047 -0.018062498 0.041703507 9.219563e-39
0.020265216 -0.018044496 0.035207789 9.219563e-39
0.011317944 -0.018067149 0.027620926 9.219563e-39
-0.0075910571 -0.018078813 0.026116556 9.219563e-39
-0.015028123 -0.018027637 0.029916357 9.219563e-39
-0.022213766 -0.018001674 0.038321875 9.219563e-39
-0.023955226 -0.018088609 0.042636283 9.219563e-39
-0.018885478 -0.01796991 0.066563241 9.219563e-39
-0.012738694 -0.017989436 0.07163313 9.219563e-39
-0.0098857544 -0.017969659 0.073100969 9.219563e-39
0.0065830043 -0.017949972 0.074282095 9.219563e-39
0.0089808591 -0.017997647 0.073459059 9.219563e-39
0.010578468 -0.017928112 0.072810136 9.219563e-39
0.018029489 -0.017946066 0.067538939 9.219563e-39
0.019256532 -0.017950622 0.066145755 9.219563e-39
0.024841104 -0.017942917 0.05383398 9.219563e-39
0.025094789 -0.017999642 0.049272809 9.219563e-39
0.013412785 -0.017996857 0.02877808 9.219563e-39
0.008165529 -0.01792248 0.026214816 9.219563e-39
-0.008623898 -0.017967895 0.026400344 9.219563e-39
-0.020278258 -0.017922333 0.035096973 9.219563e-39
-0.023686389 -0.017959647 0.041572966 9.219563e-39
-0.024764152 -0.017922893 0.045616541 9.219563e-39
-0.025100414 -0.017838856 0.052742064 9.219563e-39
-0.014867965 -0.017896714 0.070310265 9.219563e-39
-0.0048485221 -0.017862391 0.074730203 9.219563e-39
0.0098636067 -0.017860314 0.073198475 9.219563e-39
0.014039177 -0.01785486 0.070963189 9.219563e-39
0.025175152 -0.017872902 0.050879639 9.219563e-39
0.02502194 -0.017872296 0.046946492 9.219563e-39
0.024301851 -0.017895747 0.043453883 9.219563e-39
0.023188069 -0.017896099 0.040204007 9.219563e-39
0.021860678 -0.01784122 0.037409943 9.219563e-39
0.019512489 -0.017910695 0.034115255 9.219563e-39
-0.014364859 -0.017841626 0.029251331 9.219563e-39
-0.021246895 -0.017838042 0.036406998 9.219563e-39
-0.024281086 -0.017885363 0.04334759 9.219563e-39
-0.024967775 -0.017911587 0.046812676 9.219563e-39
-0.025100712 -0.017869167 0.047691941 9.219563e-39
-0.025243733 -0.017818926 0.050463691 9.219563e-39
-0.024640115 -0.017814405 0.055585701 9.219563e-39
-0.023856025 -0.017766681 0.058435444 9.219563e-39
-0.011355693 -0.017764263 0.072607726 9.219563e-39
0.0081649376 -0.017829219 0.073863566 9.219563e-39
0.011342715 -0.01780056 0.072573774 9.219563e-39
0.024358127 -0.017820565 0.056578234 9.219563e-39
0.024021113 -0.017788032 0.057913486 9.219563e-39
0.024881331 -0.017826058 0.045851793 9.219563e-39
0.017313298 -0.017774882 0.031584706 9.219563e-39
0.0049483124 -0.01781016 0.025244463 9.219563e-39
-0.010340923 -0.01777089 0.026930077 9.219563e-39
-0.020839797 -0.017697843 0.064465113 9.219563e-39
-0.014259449 -0.017724061 0.070983425 9.219563e-39
0.0053889141 -0.017717654 0.074762553 9.219563e-39
0.01584555 -0.017703034 0.069810219 9.219563e-39
0.02272835 -0.017701702 0.061274279 9.219563e-39
0.024900425 -0.017709032 0.054823156 9.219563e-39
0.025276527 -0.017694591 0.052420083 9.219563e-39
0.015982328 -0.017751716 0.030369101 9.219563e-39
-0.0067672501 -0.01772703 0.025552653 9.219563e-39
-0.0094356071 -0.017735964 0.026467372 9.219563e-39
-0.018729497 -0.017703759 0.032878317 9.219563e-39
-0.022838689 -0.017724225 0.038993068 9.219563e-39
-0.023204388 -0.017692784 0.03968922 9.219563e-39
-0.025336441 -0.017731616 0.049526934 9.219563e-39
-0.023343315 -0.017688403 0.05997885 9.219563e-39
-0.022304133 -0.017675031 0.062155057 9.219563e-39
-0.015760319 -0.017651582 0.069969811 9.219563e-39
-0.013434828 -0.017655903 0.071593516 9.219563e-39
0.00061455503 -0.017658008 0.075425662 9.219563e-39
0.023723328 -0.017636636 0.059240248 9.219563e-39
0.022882879 -0.017688442 0.038980614 9.219563e-39
0.016695449 -0.017634552 0.030743251 9.219563e-39
0.0095328167 -0.017687583 0.026445474 9.219563e-39
0.010741587 -0.01766176 0.026960991 9.219563e-39
0.0033317846 -0.017689498 0.024835505 9.219563e-39
-0.012302965 -0.017679891 0.027768524 9.219563e-39
-0.017850567 -0.017663993 0.031899821 9.219563e-39
-0.016482851 -0.017686673 0.030652324 9.219563e-39
-0.025022203 -0.017625779 0.05485915 9.219563e-39
-0.019928841 -0.017628903 0.065884776 9.219563e-39
-0.0060543558 -0.017600032 0.074807674 9.219563e-39
-0.0020520608 -0.017629955 0.075397551 9.219563e-39
0.0028082477 -0.017614814 0.075345166 9.219563e-39
0.015084125 -0.017607316 0.07058353 9.219563e-39
0.020456621 -0.01762565 0.06523066 9.219563e-39
0.025433924 -0.017604737 0.047722042 9.219563e-39
0.020869277 -0.017629128 0.035390094 9.219563e-39
0.020195423 -0.017617822 0.034395512 9.219563e-39
0.0042306101 -0.017592158 0.024775086 9.219563e-39
-0.0040744715 -0.017619628 0.024802024 9.219563e-39
-0.011285829 -0.017615225 0.027125163 9.219563e-39
-0.013714899 -0.017621631 0.028507365 9.219563e-39
-0.022161474 -0.017628418 0.03741774 9.219563e-39
-0.025472524 -0.01760301 0.048370972 9.219563e-39
-0.024739671 -0.017583039 0.056454584 9.219563e-39
-0.022945238 -0.017573832 0.061349481 9.219563e-39
-0.010567599 -0.017556649 0.073354505 9.219563e-39
0.017781682 -0.017560158 0.068451382 9.219563e-39
0.022055199 -0.017554108 0.063137598 9.219563e-39
0.0250779 -0.017581996 0.044932283 9.219563e-39
0.024479765 -0.01757443 0.042525835 9.219563e-39
0.021691846 -0.017583303 0.036439572 9.219563e-39
0.015467745 -0.01755622 0.02955818 9.219563e-39
0.013118399 -0.017572837 0.028026709 9.219563e-39
0.011825051 -0.017576931 0.027285216 9.219563e-39
0.0062475726 -0.01756843 0.025159685 9.219563e-39
0.0025317613 -0.017568361 0.024521586 9.219563e-39
-2.9723456e-05 -0.017571682 0.024405835 9.219563e-39
0.00085321878 -0.017558871 0.024372581 9.219563e-39
-0.021186598 -0.017552106 0.035550158 9.219563e-39
-0.02166784 -0.017526658 0.063903049 9.219563e-39
-0.016544247 -0.017542295 0.069678426 9.219563e-39
-0.012468881 -0.017533397 0.07250417 9.219563e-39
-0.0071942187 -0.017541889 0.07467398 9.219563e-39
0.001749116 -0.017543318 0.075635336 9.219563e-39
0.019405881 -0.017540924 0.066825643 9.219563e-39
0.021482971 -0.017525978 0.06418024 9.219563e-39
0.02354487 -0.017547909 0.060224228 9.219563e-39
0.023525445 -0.017529393 0.039539922 9.219563e-39
0.0077283042 -0.017542986 0.025510306 9.219563e-39
-0.0029093821 -0.01752636 0.024427067 9.219563e-39
-0.015076823 -0.017523961 0.029119987 9.219563e-39
-0.020069635 -0.017545586 0.033982731 9.219563e-39
-0.025420459 -0.01752284 0.045888495 9.219563e-39
-0.025679179 -0.017534724 0.051197052 9.219563e-39
-0.019097524 -0.017510304 0.067411304 9.219563e-39
-0.0087147476 -0.017515838 0.074280776 9.219563e-39
-0.0035988363 -0.017519612 0.075529203 9.219563e-39
0.0042728633 -0.017506082 0.075532191 9.219563e-39
0.013144511 -0.01750873 0.072244629 9.219563e-39
0.016693668 -0.017519882 0.069676585 9.219563e-39
0.020146418 -0.017518548 0.066096291 9.219563e-39
0.025548881 -0.017516062 0.053577092 9.219563e-39
0.025821088 -0.017511588 0.050664425 9.219563e-39
0.022594636 -0.017508024 0.037449077 9.219563e-39
0.018585689 -0.017511606 0.032041658 9.219563e-39
-0.018629668 -0.017513156 0.032096744 9.219563e-39
-0.019499466 -0.01751343 0.033092301 9.219563e-39
-0.022927932 -0.017513677 0.038153712 9.219563e-39
-0.024750544 -0.017501988 0.057759099 9.219563e-39
-0.020941786 -0.017500225 0.065367922 9.219563e-39
-0.00012963178 -0.017502537 0.075913735 9.219563e-39
0.0067208656 -0.017502755 0.075050488 9.219563e-39
0.0086340709 -0.0175012 0.074462786 9.219563e-39
0.012185515 -0.017503671 0.072885893 9.219563e-39
0.019029902 -0.017502053 0.067638703 9.219563e-39
0.024485266 -0.017501324 0.058619782 9.219563e-39
0.025295798 -0.017505361 0.055547725 9.219563e-39
0.0053826249 -0.017502693 0.02465374 9.219563e-39
-0.014451149 -0.017500911 0.028416209 9.219563e-39
-0.025330598 -0.017500058 0.044193305 9.219563e-39
0.024981448 -0.019544283 0.050299078 9.219563e-39
0.024530692 -0.019594768 0.054641183 9.219563e-39
0.019811196 -0.019508669 0.06523595 9.219563e-39
0.018306477 -0.019519076 0.067006618 9.219563e-39
0.004969412 -0.019663882 0.074451886 9.219563e-39
0.0016331216 -0.019556519 0.074929953 9.219563e-39
-0.01202457 -0.019632472 0.071887113 9.219563e-39
-0.019531228 -0.01961218 0.065555915 9.219563e-39
-0.020381762 -0.019561959 0.064416438 9.219563e-39
-0.021239195 -0.019564072 0.063151576 9.219563e-39
-0.022397501 -0.019646484 0.061021943 9.219563e-39
-0.024613194 -0.019659102 0.054081328 9.219563e-39
-0.016831165 -0.019536326 0.031560931 9.219563e-39
-0.015508862 -0.01960985 0.030440144 9.219563e-39
-0.014808113 -0.019682771 0.029921971 9.219563e-39
-0.010904167 -0.019533876 0.027541241 9.219563e-39
-0.0058111325 -0.019590052 0.025722995 9.219563e-39
-0.0012674495 -0.019592257 0.025041467 9.219563e-39
0.0075479415 -0.019584013 0.026205575 9.219563e-39
0.014409827 -0.01959822 0.029603207 9.219563e-39
0.0162118 -0.019560177 0.030975953 9.219563e-39
0.023007028 -0.019568911 0.040309817 9.219563e-39
0.022708073 -0.019634569 0.039577298 9.219563e-39
0.022353483 -0.019771421 0.061048023 9.219563e-39
0.016683377 -0.019805154 0.068515733 9.219563e-39
0.01370726 -0.019805606 0.070830233 9.219563e-39
0.0074007083 -0.019748207 0.073814273 9.219563e-39
-0.0028004409 -0.019727185 0.074778832 9.219563e-39
-0.0077042012 -0.019758334 0.073709175 9.219563e-39
-0.021686956 -0.019753531 0.062315393 9.219563e-39
-0.022745928 -0.019729234 0.060281079 9.219563e-39
-0.024736401 -0.019722704 0.053257521 9.219563e-39
-0.024951702 -0.019799162 0.049962662 9.219563e-39
-0.020561317 -0.019771377 0.035911713 9.219563e-39
-0.018025966 -0.019794365 0.032752037 9.219563e-39
-0.013992318 -0.019737087 0.029319916 9.219563e-39
0.021776397 -0.019757768 0.037855733 9.219563e-39
0.023372766 -0.019804647 0.041346878 9.219563e-39
0.021869397 -0.019870559 0.061889272 9.219563e-39
0.020506827 -0.019906329 0.064084224 9.219563e-39
0.017233837 -0.019844256 0.067974307 9.219563e-39
0.0040311972 -0.01986932 0.074599683 9.219563e-39
-0.0043062149 -0.019822787 0.07455764 9.219563e-39
-0.0084950225 -0.019881124 0.073399208 9.219563e-39
-0.01481826 -0.019821396 0.070025384 9.219563e-39
-0.023584066 -0.019869676 0.058056802 9.219563e-39
-0.024094285 -0.019878471 0.04375102 9.219563e-39
-0.01250519 -0.019827198 0.02845569 9.219563e-39
-0.002759702 -0.019818049 0.025242219 9.219563e-39
-0.0035569328 -0.019898007 0.025359822 9.219563e-39
-0.00013239708 -0.019894039 0.025118141 9.219563e-39
0.019913355 -0.019859763 0.03500868 9.219563e-39
0.024157109 -0.019876625 0.043974623 9.219563e-39
0.023780694 -0.019877123 0.042619675 9.219563e-39
0.021404929 -0.019939234 0.062700398 9.219563e-39
0.0083645787 -0.01998115 0.073392898 9.219563e-39
0.0060234861 -0.019918608 0.074140437 9.219563e-39
-0.0060780859 -0.019914519 0.074130543 9.219563e-39
-0.011327512 -0.019929947 0.07215669 9.219563e-39
-0.0097953053 -0.019945789 0.072856709 9.219563e-39
-0.024289621 -0.019949293 0.055424143 9.219563e-39
-0.024772415 -0.01997607 0.05195155 9.219563e-39
-0.024374494 -0.019925717 0.044968784 9.219563e-39
-0.023481039 -0.01994382 0.041773893 9.219563e-39
-0.021049874 -0.019914599 0.036724057 9.219563e-39
-0.01737448 -0.019987721 0.032248691 9.219563e-39
0.0022402222 -0.019994751 0.025264945 9.219563e-39
0.0091168657 -0.019950815 0.026844319 9.219563e-39
0.010603281 -0.019931646 0.02750919 9.219563e-39
0.024647562 -0.019967638 0.046766147 9.219563e-39
0.024784965 -0.019980753 0.048324011 9.219563e-39
0.024494875 -0.020020448 0.053981524 9.219563e-39
0.023197614 -0.020014945 0.058834165 9.219563e-39
0.015528305 -0.020025302 0.069364317 9.219563e-39
-0.0011711126 -0.020075167 0.074780799 9.219563e-39
-0.0019348447 -0.020015201 0.074755661 9.219563e-39
-0.015454418 -0.020029446 0.069417104 9.219563e-39
-0.014175946 -0.020012248 0.070402995 9.219563e-39
-0.023719536 -0.020033635 0.057299465 9.219563e-39
-0.024679339 -0.020083332 0.047554556 9.219563e-39
-0.022028256 -0.020042874 0.038600653 9.219563e-39
-0.019708883 -0.020071704 0.034921322 9.219563e-39
-0.013124543 -0.020065321 0.028968692 9.219563e-39
-0.0077223657 -0.020037277 0.026426358 9.219563e-39
0.020334696 -0.020070408 0.035828024 9.219563e-39
0.018467529 -0.020127293 0.066474557 9.219563e-39
0.010688782 -0.020116813 0.07232441 9.219563e-39
0.011540961 -0.020137301 0.071911894 9.219563e-39
0.0029759472 -0.020089602 0.074593581 9.219563e-39
-0.0052944692 -0.020138407 0.07415837 9.219563e-39
-0.013205031 -0.020092508 0.070961438 9.219563e-39
-0.023711983 -0.020125244 0.042917985 9.219563e-39
-0.0068363883 -0.02015961 0.026223684 9.219563e-39
0.0044716927 -0.020124685 0.025649171 9.219563e-39
0.0098012388 -0.020149356 0.027294004 9.219563e-39
0.024326947 -0.020124841 0.045449466 9.219563e-39
0.024715284 -0.020151941 0.05076981 9.219563e-39
0.022475628 -0.020199735 0.060258187 9.219563e-39
0.012403145 -0.020177625 0.071361616 9.219563e-39
-0.01228934 -0.020234207 0.071364164 9.219563e-39
-0.024663389 -0.020205965 0.049209688 9.219563e-39
-0.022996612 -0.020225218 0.041118186 9.219563e-39
-0.018223403 -0.020208739 0.033351429 9.219563e-39
-0.0096310591 -0.020179879 0.027244743 9.219563e-39
0.015620974 -0.020186717 0.030861696 9.219563e-39
0.02218134 -0.020183854 0.039123479 9.219563e-39
0.023785233 -0.020285588 0.056213595 9.219563e-39
0.022729177 -0.020266004 0.059428528 9.219563e-39
0.020648297 -0.020285236 0.063347869 9.219563e-39
0.0098464079 -0.020261379 0.072561227 9.219563e-39
0.00024670691 -0.020308224 0.074552655 9.219563e-39
-0.016585581 -0.020272711 0.068168953 9.219563e-39
-0.019858262 -0.020244779 0.064601883 9.219563e-39
-0.023862243 -0.020266769 0.056022938 9.219563e-39
-0.024568019 -0.020272532 0.051194716 9.219563e-39
-0.024276255 -0.020279754 0.046097849 9.219563e-39
-0.004549128 -0.02028938 0.025837095 9.219563e-39
0.0065765143 -0.020250056 0.026233768 9.219563e-39
0.011704545 -0.020247694 0.028300971 9.219563e-39
0.018699883 -0.020256344 0.033990581 9.219563e-39
0.019507587 -0.020323323 0.0649243 9.219563e-39
0.0021577661 -0.020357246 0.074387208 9.219563e-39
-0.0068376204 -0.020331556 0.07356748 9.219563e-39
-0.015927127 -0.020325569 0.068695977 9.219563e-39
-0.017869376 -0.020329591 0.066837989 9.219563e-39
-0.022781122 -0.02032062 0.059106678 9.219563e-39
-0.023878576 -0.020350007 0.044466194 9.219563e-39
-0.01411763 -0.020353237 0.0299771 9.219563e-39
-0.010902681 -0.020335974 0.028037857 9.219563e-39
-0.0084912255 -0.020344719 0.027011069 9.219563e-39
0.0015282594 -0.020352136 0.025536427 9.219563e-39
0.013616133 -0.020333732 0.029583734 9.219563e-39
0.016877178 -0.020356324 0.032269131 9.219563e-39
0.021637453 -0.020344891 0.038515199 9.219563e-39
0.024576688 -0.020313907 0.049934458 9.219563e-39
0.024380282 -0.020353233 0.047428835 9.219563e-39
0.021269133 -0.020387102 0.062021937 9.219563e-39
0.021881301 -0.020413449 0.060757011 9.219563e-39
0.013014317 -0.020397253 0.070648953 9.219563e-39
0.0045648576 -0.020369049 0.074038759 9.219563e-39
-0.0044163885 -0.020395868 0.074017607 9.219563e-39
-0.010295289 -0.020384884 0.072151467 9.219563e-39
-0.014670687 -0.020412393 0.069463544 9.219563e-39
-0.019193158 -0.020388201 0.065125808 9.219563e-39
-0.024321036 -0.020413315 0.048412547 9.219563e-39
-0.022460829 -0.020393407 0.040423121 9.219563e-39
-0.0018033024 -0.020391557 0.025638225 9.219563e-39
0.0031715021 -0.02040357 0.025810698 9.219563e-39
0.0056825224 -0.020371344 0.026211834 9.219563e-39
0.0082493387 -0.020378066 0.026989069 9.219563e-39
0.019171154 -0.020381222 0.034827147 9.219563e-39
0.021104796 -0.02037896 0.037634015 9.219563e-39
0.023921425 -0.020377934 0.044842608 9.219563e-39
0.02389071 -0.020416088 0.054872151 9.219563e-39
0.014496159 -0.020433003 0.069529913 9.219563e-39
0.015656447 -0.020433396 0.068646595 9.219563e-39
0.01362647 -0.020444853 0.070148498 9.219563e-39
0.0067975223 -0.020443698 0.073344141 9.219563e-39
-0.017027592 -0.020424016 0.06740202 9.219563e-39
-0.018587044 -0.02041637 0.065751247 9.219563e-39
-0.020607466 -0.020421924 0.062994808 9.219563e-39
-0.024325645 -0.020443652 0.049950011 9.219563e-39
-0.020000864 -0.020445129 0.036217853 9.219563e-39
-0.018512391 -0.020418497 0.034169398 9.219563e-39
-0.0025678666 -0.020440161 0.025834206 9.219563e-39
0.019615427 -0.020436956 0.035611618 9.219563e-39
0.022138596 -0.020437388 0.039888248 9.219563e-39
0.024011614 -0.020472296 0.053083152 9.219563e-39
0.016185995 -0.020460958 0.068051644 9.219563e-39
-0.0088874893 -0.020473061 0.072532997 9.219563e-39
-0.024068115 -0.020454887 0.053140931 9.219563e-39
-0.023434537 -0.020456828 0.043751687 9.219563e-39
-0.020888522 -0.020473199 0.037755407 9.219563e-39
-0.02045843 -0.020462476 0.036996067 9.219563e-39
-0.012213279 -0.020468896 0.029097762 9.219563e-39
-0.010062025 -0.020466853 0.02797481 9.219563e-39
0.00050168199 -0.020458641 0.025754808 9.219563e-39
0.024012713 -0.020461679 0.04667807 9.219563e-39
0.023817779 -0.020485444 0.053845756 9.219563e-39
0.022613244 -0.020479577 0.058526352 9.219563e-39
0.018391665 -0.020489881 0.065571591 9.219563e-39
0.0036761749 -0.020489952 0.073840104 9.219563e-39
-0.0031325966 -0.020486575 0.073920593 9.219563e-39
-0.0053673405 -0.020492565 0.073476389 9.219563e-39
-0.013329023 -0.020480918 0.07017003 9.219563e-39
-0.021255774 -0.020479402 0.061495226 9.219563e-39
-0.02292192 -0.020484842 0.057638578 9.219563e-39
-0.023041317 -0.020479865 0.042674381 9.219563e-39
-0.021695849 -0.020482825 0.039380841 9.219563e-39
-0.015769159 -0.020484949 0.031701144 9.219563e-39
-0.015064765 -0.020493519 0.031210035 9.219563e-39
0.016065894 -0.020481408 0.031951495 9.219563e-39
0.020040963 -0.02048924 0.036609463 9.219563e-39
0.023454433 -0.020481136 0.044192176 9.219563e-39
0.024053827 -0.020489048 0.048431348 9.219563e-39
0.023356713 -0.020498045 0.055593971 9.219563e-39
0.019852556 -0.020497134 0.063520305 9.219563e-39
0.017052932 -0.020495694 0.066968791 9.219563e-39
0.014819758 -0.020499682 0.068844922 9.219563e-39
0.0058859601 -0.020498237 0.073277183 9.219563e-39
-0.002232831 -0.020494619 0.073966026 9.219563e-39
-0.0094652241 -0.020499982 0.072026573 9.219563e-39
-0.01510627 -0.020494709 0.068745688 9.219563e-39
-0.01944815 -0.020499948 0.064021654 9.219563e-39
-0.023099758 -0.020496303 0.056642942 9.219563e-39
-0.023631278 -0.020495772 0.054481845 9.219563e-39
-0.023821864 -0.020496842 0.046806153 9.219563e-39
-0.011374318 -0.020494716 0.028758453 9.219563e-39
-0.013352361 -0.020498833 0.030039741 9.219563e-39
0.0046341536 -0.020498203 0.026446629 9.219563e-39
0.017379766 -0.020495676 0.033340346 9.219563e-39
0.022469038 -0.020498523 0.041571766 9.219563e-39
0.039641634 0.013792697 0.050539762 9.219563e-39
0.039075416 0.015097636 0.051340546 9.219563e-39
0.039169636 0.014662926 0.052875489 9.219563e-39
0.039319515 0.014421727 0.051864412 9.219563e-39
0.039487179 0.013913393 0.05256214 9.219563e-39
0.039635845 0.013619313 0.051793296 9.219563e-39
0.038259476 0.016923828 0.052909516 9.219563e-39
0.038178947 0.017217606 0.052194078 9.219563e-39
0.038669422 0.016069282 0.051638894 9.219563e-39
0.038986214 0.015025155 0.053598348 9.219563e-39
0.038073458 0.017270988 0.053797312 9.219563e-39
0.038548574 0.016165659 0.053205572 9.219563e-39
0.038368307 0.016929736 0.050788093 9.219563e-39
0.039112486 0.01408284 0.055550076 9.219563e-39
0.038215544 0.016742157 0.054392509 9.219563e-39
0.038919587 0.01404944 0.056853589 9.219563e-39
0.038369078 0.01609928 0.055071969 9.219563e-39
0.038897164 0.014988472 0.054586835 9.219563e-39
0.038617544 0.015800215 0.05427032 9.219563e-39
0.038767178 0.014991031 0.055400919 9.219563e-39
0.038756311 0.014658623 0.056322042 9.219563e-39
0.038982604 0.013521405 0.057633579 9.219563e-39
0.039396308 0.013755849 0.054580785 9.219563e-39
0.039441634 0.012036749 0.057527635 9.219563e-39
0.03967873 0.011350485 0.057321381 9.219563e-39
0.039668482 0.011806745 0.056528013 9.219563e-39
0.039293509 0.012854096 0.056925677 9.219563e-39
0.039548337 0.012679002 0.055646118 9.219563e-39
0.039598521 0.013434229 0.053474098 9.219563e-39
0.040232405 0.011398488 0.052887544 9.219563e-39
0.040090233 0.011724974 0.053684242 9.219563e-39
0.039890144 0.013016446 0.050551981 9.219563e-39
0.040057778 0.012116555 0.052245155 9.219563e-39
0.03984366 0.012903282 0.051936761 9.219563e-39
0.0399165 0.012424258 0.05312242 9.219563e-39
0.040495735 0.01029978 0.053937428 9.219563e-39
0.039940041 0.010786857 0.056731544 9.219563e-39
0.039687123 0.01285407 0.054440632 9.219563e-39
0.039999846 0.011370732 0.055255838 9.219563e-39
0.040311549 0.010329772 0.055245526 9.219563e-39
0.03991539 0.01023725 0.057920825 9.219563e-39
0.040209141 0.010168423 0.056195565 9.219563e-39
0.040284306 0.010783027 0.054565106 9.219563e-39
0.04000986 0.010972528 0.055941518 9.219563e-39
0.038312927 0.015595144 0.056719527 9.219563e-39
0.038235299 0.016047738 0.056048825 9.219563e-39
0.038634378 0.014452535 0.057620443 9.219563e-39
0.037862796 0.01687005 0.056291856 9.219563e-39
0.037362918 0.017499533 0.057833824 9.219563e-39
0.038194366 0.015472775 0.057782091 9.219563e-39
0.037719529 0.016746843 0.057512581 9.219563e-39
0.038095944 0.015006661 0.059004985 9.219563e-39
0.036370702 0.017460041 0.061640535 9.219563e-39
0.037008695 0.017206188 0.059653118 9.219563e-39
0.036941461 0.016587168 0.060863521 9.219563e-39
0.038605295 0.014099126 0.058510847 9.219563e-39
0.037433688 0.016255317 0.05954098 9.219563e-39
0.037535019 0.016791249 0.058332127 9.219563e-39
0.038347114 0.014123012 0.05943739 9.219563e-39
0.036877584 0.016203133 0.061697245 9.219563e-39
0.037834514 0.01505228 0.059909921 9.219563e-39
0.038057424 0.013962227 0.060767788 9.219563e-39
0.037218373 0.015813041 0.061030101 9.219563e-39
0.037714582 0.014077214 0.061869074 9.219563e-39
0.038017694 0.013300574 0.061743848 9.219563e-39
0.038755421 0.010836802 0.061791331 9.219563e-39
0.038740776 0.012300829 0.060181711 9.219563e-39
0.038598992 0.011904598 0.061161302 9.219563e-39
0.03839834 0.0116262 0.062226627 9.219563e-39
0.038363092 0.013125501 0.060653809 9.219563e-39
0.038662173 0.013409912 0.059214283 9.219563e-39
0.039045155 0.011160255 0.060342312 9.219563e-39
0.039153636 0.011547917 0.059496753 9.219563e-39
0.039745759 0.010314311 0.058689207 9.219563e-39
0.038816366 0.010193476 0.06229521 9.219563e-39
0.03934449 0.011641448 0.058678132 9.219563e-39
0.038862772 0.012563695 0.059427589 9.219563e-39
0.038994882 0.010722945 0.061027057 9.219563e-39
0.036052011 0.017016614 0.063016355 9.219563e-39
0.037047792 0.014729118 0.062983237 9.219563e-39
0.036959119 0.015542538 0.062303573 9.219563e-39
0.036304176 0.015843773 0.063672505 9.219563e-39
0.035821039 0.01631193 0.064406984 9.219563e-39
0.036478993 0.016128529 0.062898301 9.219563e-39
0.036762986 0.014704884 0.063752308 9.219563e-39
0.03724144 0.014010881 0.063282877 9.219563e-39
0.035193432 0.017023548 0.065245256 9.219563e-39
0.037007578 0.013855724 0.064065807 9.219563e-39
0.036237452 0.01518675 0.064581886 9.219563e-39
0.035749011 0.015364871 0.065654889 9.219563e-39
0.036552135 0.014425316 0.064614587 9.219563e-39
0.036931749 0.012055614 0.06576401 9.219563e-39
0.036865119 0.013347495 0.064876981 9.219563e-39
0.037455183 0.012494616 0.06404002 9.219563e-39
0.036620177 0.013098296 0.065719657 9.219563e-39
0.03723773 0.0121276 0.064907812 9.219563e-39
