# .PCD v0.7 - Point Cloud Data file format
VERSION 0.7
FIELDS x y z rgb
SIZE 4 4 4 4
TYPE F F F F
COUNT 1 1 1 1
WIDTH 954
HEIGHT 1
VIEWPOINT 0 0 0 1 0 0 0
POINTS 954
DATA ascii
0.010940693 -0.050397649 0.0013606199 9.219563e-39
0.010923039 -0.050404396 0.01514759 9.219563e-39
0.01084308 -0.050434962 0.0048182877 9.219563e-39
0.011055257 -0.050353855 0.017529944 9.219563e-39
0.011170295 -0.050309882 0.015916007 9.219563e-39
0.010938539 -0.050398473 0.0088535408 9.219563e-39
0.011214763 -0.050292883 0.014087252 9.219563e-39
0.011476331 -0.0501929 0.0063317837 9.219563e-39
0.011889439 -0.050034985 0.0014971956 9.219563e-39
0.011730633 -0.050095692 0.00081297295 9.219563e-39
0.011118352 -0.050329737 0.0099081257 9.219563e-39
0.010985037 -0.050380699 0.011521961 9.219563e-39
0.010868042 -0.050425421 0.023462174 9.219563e-39
0.012067632 -0.049966872 0.01158032 9.219563e-39
0.012253808 -0.049895704 0.0029854702 9.219563e-39
0.011917041 -0.050024435 0.015640046 9.219563e-39
0.011657426 -0.050123673 0.013400005 9.219563e-39
0.012359593 -0.049855269 0.0074577965 9.219563e-39
0.01203246 -0.049980316 0.014803834 9.219563e-39
0.011346896 -0.050242376 0.018730637 9.219563e-39
0.011999245 -0.049993012 0.024278097 9.219563e-39
0.012198601 -0.049916808 0.0062250462 9.219563e-39
0.011762548 -0.050083492 0.019457864 9.219563e-39
0.012396984 -0.049840976 0.020380417 9.219563e-39
0.011679902 -0.050115082 0.017080713 9.219563e-39
0.011102203 -0.05033591 0.021753889 9.219563e-39
0.012129232 -0.049943324 0.021955865 9.219563e-39
0.01195395 -0.050010327 0.017794468 9.219563e-39
0.011418892 -0.050214857 0.022415737 9.219563e-39
0.012347999 -0.049859699 0.022622693 9.219563e-39
0.011090794 -0.050340272 0.020255182 9.219563e-39
0.011356343 -0.050238766 0.020982638 9.219563e-39
0.01220496 -0.049914379 0.0097133825 9.219563e-39
0.011799469 -0.050069377 0.022981277 9.219563e-39
0.013250425 -0.049462177 0.0013184438 9.219563e-39
0.012917504 -0.049611367 0.0094992956 9.219563e-39
0.012944349 -0.049599335 0.00696528 9.219563e-39
0.013477523 -0.049360409 0.0058060861 9.219563e-39
0.013504165 -0.04934847 0.0028765057 9.219563e-39
0.013516858 -0.049342781 0.0083336467 9.219563e-39
0.013266064 -0.04945517 0.00043500416 9.219563e-39
0.01320145 -0.049484123 0.012910024 9.219563e-39
0.012859389 -0.049637407 0.012280135 9.219563e-39
0.012602973 -0.049752314 0.00069483457 9.219563e-39
0.012530184 -0.049784932 0.001406308 9.219563e-39
0.013118421 -0.049521331 0.0042674299 9.219563e-39
0.012542532 -0.049779397 0.0049946969 9.219563e-39
0.012504481 -0.049796451 0.016325852 9.219563e-39
0.012582559 -0.049761459 0.013456636 9.219563e-39
0.013487802 -0.049355805 0.0050285561 9.219563e-39
0.012573027 -0.049765732 0.0023990367 9.219563e-39
0.012531749 -0.049784232 0.019278245 9.219563e-39
0.012698112 -0.049709678 0.015058763 9.219563e-39
0.012866556 -0.049634196 0.014359617 9.219563e-39
0.013043587 -0.049554866 0.0077540171 9.219563e-39
0.012535439 -0.049782578 0.01701249 9.219563e-39
0.012829794 -0.049650669 0.0034409878 9.219563e-39
0.012615212 -0.04974683 0.01777019 9.219563e-39
0.0125172 -0.049790751 0.01059814 9.219563e-39
0.013197132 -0.04948606 0.016160963 9.219563e-39
0.013344891 -0.049419843 0.024076702 9.219563e-39
0.014004971 -0.049124051 0.014830218 9.219563e-39
0.01280776 -0.049660545 0.021811366 9.219563e-39
0.013950914 -0.049148273 0.012133418 9.219563e-39
0.013534029 -0.049335089 0.019197693 9.219563e-39
0.013623607 -0.049294945 0.01419132 9.219563e-39
0.01362568 -0.049294017 0.010127244 9.219563e-39
0.014012665 -0.049120601 0.018657748 9.219563e-39
0.013052667 -0.049550798 0.018677074 9.219563e-39
0.013842219 -0.049196981 0.0090035256 9.219563e-39
0.013633809 -0.049290374 0.015549945 9.219563e-39
0.014110271 -0.049076863 0.024214 9.219563e-39
0.014071135 -0.049094401 0.011350946 9.219563e-39
0.013893524 -0.049173992 0.004192567 9.219563e-39
0.013143422 -0.049510125 0.021085367 9.219563e-39
0.014088942 -0.049086422 0.010587322 9.219563e-39
0.013614948 -0.049298827 0.01719792 9.219563e-39
0.0134611 -0.049367771 0.021898685 9.219563e-39
0.012793333 -0.049667008 0.024494501 9.219563e-39
0.013645031 -0.049285345 0.0071525676 9.219563e-39
0.013648285 -0.049283888 0.022901051 9.219563e-39
0.013372603 -0.049407426 0.011807613 9.219563e-39
0.013516991 -0.049342722 0.019973068 9.219563e-39
0.013496251 -0.049352016 0.017962763 9.219563e-39
0.012579767 -0.049762711 0.023395473 9.219563e-39
0.01438718 -0.048934136 0.0052344035 9.219563e-39
0.014703198 -0.048770629 0.0081820264 9.219563e-39
0.014246784 -0.049006771 0.017713835 9.219563e-39
0.014240181 -0.049010187 0.022604216 9.219563e-39
0.015055762 -0.04858822 0.0096905557 9.219563e-39
0.014937604 -0.048649352 0.0047861091 9.219563e-39
0.014195119 -0.049033504 0.021293929 9.219563e-39
0.014970692 -0.048632231 0.008968656 9.219563e-39
0.014370861 -0.048942577 0.0061841705 9.219563e-39
0.015000792 -0.048616659 0.00080805988 9.219563e-39
0.014837525 -0.04870113 0.0018196215 9.219563e-39
0.014172971 -0.049044963 0.009702214 9.219563e-39
0.014244245 -0.049008086 0.0015296546 9.219563e-39
0.014138302 -0.0490629 0.013209226 9.219563e-39
0.014182331 -0.04904012 0.00019853626 9.219563e-39
0.014234831 -0.049012959 0.019827567 9.219563e-39
0.01435844 -0.048949003 0.0071242237 9.219563e-39
0.01428772 -0.048985593 0.0032432533 9.219563e-39
0.014547508 -0.048851181 0.0040628365 9.219563e-39
0.014257159 -0.049001403 0.016222954 9.219563e-39
0.01535396 -0.048433933 0.002660448 9.219563e-39
0.014541993 -0.048854034 0.014415397 9.219563e-39
0.015348208 -0.04843691 0.0014220744 9.219563e-39
0.014763337 -0.048739515 0.012469098 9.219563e-39
0.014854591 -0.048692301 0.0066843564 9.219563e-39
0.01518169 -0.048523065 0.0055454923 9.219563e-39
0.01543187 -0.048393626 0.018894004 9.219563e-39
0.014959243 -0.048638158 0.015543018 9.219563e-39
0.014852725 -0.048693266 0.019198947 9.219563e-39
0.014750577 -0.048746116 0.02417198 9.219563e-39
0.014653139 -0.048796531 0.021884102 9.219563e-39
0.015701253 -0.048254248 0.0037212928 9.219563e-39
0.014984944 -0.048624858 0.016256252 9.219563e-39
0.015591875 -0.048310839 0.01716836 9.219563e-39
0.015398222 -0.048411034 0.012081038 9.219563e-39
0.015642269 -0.048284769 0.0062258304 9.219563e-39
0.015534314 -0.048340622 0.021245297 9.219563e-39
0.015598716 -0.0483073 0.0092889657 9.219563e-39
0.015715444 -0.048246909 0.013096472 9.219563e-39
0.014748492 -0.048747197 0.017357556 9.219563e-39
0.014885312 -0.048676405 0.013772683 9.219563e-39
0.015311763 -0.048455767 0.010335209 9.219563e-39
0.015285813 -0.048469193 0.023515608 9.219563e-39
0.014732986 -0.048755217 0.020634627 9.219563e-39
0.014947868 -0.04864404 0.018282348 9.219563e-39
0.01548472 -0.048366282 0.015105346 9.219563e-39
0.015286864 -0.048468649 0.0074871061 9.219563e-39
0.015635982 -0.048288021 0.020268811 9.219563e-39
0.01572632 -0.04824128 0.00074310129 9.219563e-39
0.015307518 -0.048457962 0.014300221 9.219563e-39
0.015602358 -0.048305418 0.016378056 9.219563e-39
0.015324332 -0.048449263 0.022777127 9.219563e-39
0.015050619 -0.04859088 0.011233843 9.219563e-39
0.015709436 -0.048250016 0.01135561 9.219563e-39
0.016275687 -0.047917664 0.016336879 9.219563e-39
0.015962787 -0.048102524 0.023295216 9.219563e-39
0.016334986 -0.047882628 0.019047871 9.219563e-39
0.015860001 -0.048163254 0.022205731 9.219563e-39
0.015869047 -0.048157908 0.0100172 9.219563e-39
0.016444456 -0.047817953 0.020195523 9.219563e-39
0.017191477 -0.04737661 0.023260498 9.219563e-39
0.01608284 -0.048031598 0.012068409 9.219563e-39
0.015849449 -0.048169486 0.0079236822 9.219563e-39
0.01689022 -0.047554594 0.019309621 9.219563e-39
0.016165052 -0.047983028 0.0067641418 9.219563e-39
0.016534686 -0.047764644 0.014321967 9.219563e-39
0.016782641 -0.047618151 0.021066196 9.219563e-39
0.016194146 -0.04796584 0.020856498 9.219563e-39
0.016199848 -0.047962468 0.018291239 9.219563e-39
0.015983971 -0.048090011 0.0046171541 9.219563e-39
0.015793899 -0.048202306 0.0052493881 9.219563e-39
0.016275877 -0.047917549 0.012776491 9.219563e-39
0.017006436 -0.047485933 0.023930844 9.219563e-39
0.016096095 -0.048023768 0.013729572 9.219563e-39
0.016259102 -0.047927462 0.021556092 9.219563e-39
0.016158933 -0.047986642 0.008602364 9.219563e-39
0.01628102 -0.047914512 0.014959777 9.219563e-39
0.016273098 -0.047919191 0.02465694 9.219563e-39
0.016776782 -0.047621612 0.02197771 9.219563e-39
0.016477104 -0.047798663 0.022657163 9.219563e-39
0.01677721 -0.047621362 0.018344158 9.219563e-39
0.016856246 -0.047574665 0.015568026 9.219563e-39
0.016812108 -0.047600742 0.003016866 9.219563e-39
0.017004495 -0.04748708 0.0087753749 9.219563e-39
0.016914804 -0.047540069 0.0099588772 9.219563e-39
0.016940197 -0.047525067 0.0050533684 9.219563e-39
0.016647849 -0.047697786 0.011853975 9.219563e-39
0.017280145 -0.047324222 0.006757102 9.219563e-39
0.016339771 -0.0478798 0.0037311162 9.219563e-39
0.016490432 -0.047790792 0.0094081722 9.219563e-39
0.017263187 -0.047334243 0.0014776335 9.219563e-39
0.016701818 -0.047665901 0.013486117 9.219563e-39
0.017158909 -0.047395851 0.0058214208 9.219563e-39
0.016516827 -0.047775194 0.0079714898 9.219563e-39
0.017063888 -0.047451988 0.014924802 9.219563e-39
0.01683801 -0.047585439 0.00071055279 9.219563e-39
0.016405832 -0.047840774 -0.00030320726 9.219563e-39
0.017221322 -0.047358975 0.016640782 9.219563e-39
0.016439395 -0.047820944 0.0055525065 9.219563e-39
0.016244166 -0.047936287 0.0012044845 9.219563e-39
0.016614512 -0.047717482 0.010879609 9.219563e-39
0.015964556 -0.048101481 0.0022787219 9.219563e-39
0.017220173 -0.047359657 0.020577503 9.219563e-39
0.017272154 -0.047328945 0.0025245748 9.219563e-39
0.016836448 -0.047586363 0.0019727226 9.219563e-39
0.016964963 -0.047510434 0.0075003989 9.219563e-39
0.017990144 -0.046851449 0.012958541 9.219563e-39
0.017311236 -0.047305822 0.012684011 9.219563e-39
0.017689612 -0.047052585 0.015152027 9.219563e-39
0.017563967 -0.047136676 0.019807296 9.219563e-39
0.018156523 -0.046740096 0.019442722 9.219563e-39
0.018071802 -0.046796799 0.014470997 9.219563e-39
0.017518645 -0.047167011 0.017754951 9.219563e-39
0.01832246 -0.046629038 0.021579871 9.219563e-39
0.017871073 -0.04693114 0.011116742 9.219563e-39
0.018221047 -0.046696912 0.020792684 9.219563e-39
0.017429002 -0.047227006 0.02152043 9.219563e-39
0.017555919 -0.047142066 0.0085771121 9.219563e-39
0.018268466 -0.046665177 0.018121189 9.219563e-39
0.018584352 -0.046453763 0.022522638 9.219563e-39
0.017459275 -0.047206745 0.011911973 9.219563e-39
0.018149687 -0.046744671 0.015594313 9.219563e-39
0.017517656 -0.047167674 0.013997397 9.219563e-39
0.01804705 -0.046813361 0.023085449 9.219563e-39
0.017580375 -0.047125697 0.0077880793 9.219563e-39
0.018388383 -0.046584919 0.023773413 9.219563e-39
0.018381044 -0.046589829 0.024572531 9.219563e-39
0.017687676 -0.047053881 0.023983622 9.219563e-39
0.017521661 -0.047164991 0.0037845916 9.219563e-39
0.01766427 -0.047069546 0.022448333 9.219563e-39
0.017795136 -0.046981961 0.009478637 9.219563e-39
0.01795353 -0.046875954 0.01678798 9.219563e-39
0.018526288 -0.046492621 0.009227924 9.219563e-39
0.017815065 -0.046968624 0.0054173856 9.219563e-39
0.017801303 -0.046977833 0.0017937957 9.219563e-39
0.018622572 -0.046428181 0.020258116 9.219563e-39
0.018747279 -0.046344716 0.019256245 9.219563e-39
0.018677281 -0.046391565 0.0065522506 9.219563e-39
0.018624576 -0.04642684 0.00039295314 9.219563e-39
0.018661859 -0.046401888 0.016803615 9.219563e-39
0.018708348 -0.046370775 0.0036522157 9.219563e-39
0.018107748 -0.046772741 0.010234813 9.219563e-39
0.017941622 -0.046883922 0.0029661872 9.219563e-39
0.018802693 -0.046307631 0.015980966 9.219563e-39
0.018629935 -0.046423253 0.0084859235 9.219563e-39
0.018464217 -0.046534166 0.0045226351 9.219563e-39
0.018227529 -0.046692573 0.0060871323 9.219563e-39
0.017882127 -0.046923742 0.00096278539 9.219563e-39
0.018392738 -0.046582002 0.0013972084 9.219563e-39
0.018713132 -0.046367571 0.012699035 9.219563e-39
0.017834922 -0.046955332 -3.512172e-05 9.219563e-39
0.018544529 -0.046480414 0.011945604 9.219563e-39
0.017853936 -0.04694261 0.0046936041 9.219563e-39
0.018063551 -0.04680232 0.0081762746 9.219563e-39
0.017362995 -0.047271181 0.00040455448 9.219563e-39
0.018309707 -0.046637572 0.0021612251 9.219563e-39
0.018357668 -0.046605475 0.0072855595 9.219563e-39
0.018383404 -0.04658825 0.013880039 9.219563e-39
0.019501504 -0.045782939 0.013362055 9.219563e-39
0.019303512 -0.0459322 0.0082757547 9.219563e-39
0.019039251 -0.046131421 0.017588595 9.219563e-39
0.019293057 -0.045940083 0.016265074 9.219563e-39
0.019112388 -0.046076283 0.0091667259 9.219563e-39
0.020084172 -0.045343682 0.021738274 9.219563e-39
0.019672537 -0.045654003 0.023480413 9.219563e-39
0.018959703 -0.046191391 0.010519261 9.219563e-39
0.019073127 -0.04610588 0.023968648 9.219563e-39
0.019719793 -0.045618378 0.020498646 9.219563e-39
0.019409794 -0.045852076 0.022495398 9.219563e-39
0.019101344 -0.046084609 0.01207906 9.219563e-39
0.018895458 -0.046239819 0.014193628 9.219563e-39
0.019719992 -0.045618229 0.019419732 9.219563e-39
0.019091822 -0.046091788 0.015081604 9.219563e-39
0.019526118 -0.045764383 0.014193004 9.219563e-39
0.019584663 -0.045720249 0.017346855 9.219563e-39
0.018840436 -0.0462813 0.0056693261 9.219563e-39
0.019112935 -0.046075869 0.018681321 9.219563e-39
0.019024123 -0.046142824 0.021288784 9.219563e-39
0.019909587 -0.045475297 0.018604666 9.219563e-39
0.018926693 -0.046216272 0.023251021 9.219563e-39
0.01886357 -0.046263862 0.013378982 9.219563e-39
0.019577298 -0.0457258 0.011443261 9.219563e-39
0.019922266 -0.045465738 0.00064830657 9.219563e-39
0.020053074 -0.045367125 0.014773929 9.219563e-39
0.019782441 -0.045571148 0.003332746 9.219563e-39
0.01967855 -0.045649469 -0.00021022637 9.219563e-39
0.019947749 -0.045446526 0.012872946 9.219563e-39
0.02021298 -0.045246575 0.0094552832 9.219563e-39
0.019967318 -0.045431774 0.0074666827 9.219563e-39
0.019038098 -0.046132289 0.00094871718 9.219563e-39
0.020096742 -0.045334205 0.0046935403 9.219563e-39
0.019611357 -0.045700125 0.010657421 9.219563e-39
0.019381059 -0.045873739 0.0043354076 9.219563e-39
0.019029364 -0.046138871 0.0030248477 9.219563e-39
0.019859243 -0.04551325 0.0067011933 9.219563e-39
0.019017212 -0.046148032 0.0018993896 9.219563e-39
0.019905917 -0.045478065 0.016007209 9.219563e-39
0.020203419 -0.045253783 0.01107726 9.219563e-39
0.019965939 -0.045432813 0.0016786261 9.219563e-39
0.019621184 -0.045692716 0.0053697857 9.219563e-39
0.020160865 -0.045285866 0.0038385463 9.219563e-39
0.019394603 -0.045863528 0.007205795 9.219563e-39
0.019959198 -0.045437895 0.0024767772 9.219563e-39
0.019983159 -0.045419831 0.008436556 9.219563e-39
0.021011312 -0.044577878 0.0035051545 9.219563e-39
0.020335102 -0.04514993 0.017667823 9.219563e-39
0.020960443 -0.044620913 0.0091379937 9.219563e-39
0.02104241 -0.04455157 0.0027201448 9.219563e-39
0.020743089 -0.044804785 0.0042212121 9.219563e-39
0.020694708 -0.044845715 0.015251926 9.219563e-39
0.021373143 -0.044271782 0.00401391 9.219563e-39
0.020612631 -0.044915151 0.016045397 9.219563e-39
0.020339433 -0.045146268 0.01015173 9.219563e-39
0.02031175 -0.045169685 0.022490453 9.219563e-39
0.021607328 -0.044073667 0.00044253134 9.219563e-39
0.021205705 -0.044413429 0.0079490747 9.219563e-39
0.021519328 -0.044148114 0.0014102289 9.219563e-39
0.020437667 -0.045063164 0.013677565 9.219563e-39
0.020781409 -0.044772368 0.014281313 9.219563e-39
0.020877548 -0.044691037 0.013079843 9.219563e-39
0.020484304 -0.04502371 0.020063728 9.219563e-39
0.020453326 -0.045049917 0.0058107814 9.219563e-39
0.020442281 -0.04505926 0.0030809769 9.219563e-39
0.020318035 -0.045164369 0.012285464 9.219563e-39
0.021148236 -0.044462044 0.0047854702 9.219563e-39
0.020490872 -0.045018155 0.00038501032 9.219563e-39
0.02069216 -0.044847872 0.010879253 9.219563e-39
0.020422805 -0.045075737 0.0067834733 9.219563e-39
0.020503689 -0.045007311 0.018828936 9.219563e-39
0.020961476 -0.044620037 0.012316526 9.219563e-39
0.02071476 -0.04482875 0.0083768936 9.219563e-39
0.020514281 -0.044998351 0.0016476342 9.219563e-39
0.020306051 -0.045174506 0.016857196 9.219563e-39
0.020362508 -0.045126747 0.02437645 9.219563e-39
0.021113081 -0.044491783 0.024266191 9.219563e-39
0.021478962 -0.04418226 0.0094118332 9.219563e-39
0.020501126 -0.045009483 0.020914141 9.219563e-39
0.02083323 -0.044728529 0.019379271 9.219563e-39
0.021193787 -0.044423509 0.02101915 9.219563e-39
0.020650642 -0.044882994 0.023071829 9.219563e-39
0.021160221 -0.044451907 0.0113344 9.219563e-39
0.021200787 -0.04441759 0.023371216 9.219563e-39
0.021221407 -0.044400144 0.015024419 9.219563e-39
0.02106322 -0.044533968 0.016870223 9.219563e-39
0.020928834 -0.044647653 0.018323844 9.219563e-39
0.021475831 -0.044184908 0.012625853 9.219563e-39
0.021539439 -0.0441311 0.022596415 9.219563e-39
0.021142377 -0.044467002 0.015902022 9.219563e-39
0.021359669 -0.044283181 0.019677835 9.219563e-39
0.02129793 -0.04433541 0.013716305 9.219563e-39
0.021390878 -0.044256777 0.0087167984 9.219563e-39
0.021408563 -0.044241816 0.006282886 9.219563e-39
0.021451032 -0.044205889 0.017548362 9.219563e-39
0.021305146 -0.044329304 0.010486399 9.219563e-39
0.021379465 -0.044266433 0.0054939273 9.219563e-39
0.021644363 -0.044042338 0.023977157 9.219563e-39
0.022587366 -0.043152571 0.023365173 9.219563e-39
0.022216732 -0.043503657 0.019769948 9.219563e-39
0.021817796 -0.04388155 0.0082007814 9.219563e-39
0.021818262 -0.043881111 0.015730601 9.219563e-39
0.022428008 -0.043303523 0.017997093 9.219563e-39
0.021988777 -0.04371959 0.013935704 9.219563e-39
0.021928513 -0.043776676 0.016414579 9.219563e-39
0.022125175 -0.043590382 0.0091590686 9.219563e-39
0.022273546 -0.043449838 0.021229925 9.219563e-39
0.021820223 -0.043879252 0.020485792 9.219563e-39
0.021927061 -0.043778051 0.010563637 9.219563e-39
0.02212874 -0.043587007 0.023758372 9.219563e-39
0.022117883 -0.043597292 0.024601106 9.219563e-39
0.022332044 -0.043394424 0.017196957 9.219563e-39
0.022211762 -0.043508362 0.022335926 9.219563e-39
0.021801291 -0.043897185 0.018221317 9.219563e-39
0.022658816 -0.04308489 0.024329647 9.219563e-39
0.021990661 -0.043717805 0.012657329 9.219563e-39
0.021740597 -0.043954682 0.021628886 9.219563e-39
0.022428958 -0.043302625 0.02056101 9.219563e-39
0.02193219 -0.043773193 0.0056337616 9.219563e-39
0.022739122 -0.043008819 0.019861897 9.219563e-39
0.022298733 -0.043425981 0.018874897 9.219563e-39
0.021819063 -0.043880351 0.0035411201 9.219563e-39
0.022801682 -0.042949557 0.021100363 9.219563e-39
0.021934435 -0.043771066 0.011955776 9.219563e-39
0.021685053 -0.044007294 0.0068657873 9.219563e-39
0.021741549 -0.04395378 0.01895063 9.219563e-39
0.022503242 -0.043232258 0.0038078432 9.219563e-39
0.022603484 -0.043137301 0.013232406 9.219563e-39
0.022528272 -0.043208547 0.015221659 9.219563e-39
0.022688383 -0.043056879 0.012276369 9.219563e-39
0.022467189 -0.043266408 0.0098031554 9.219563e-39
0.021970235 -0.043737154 0.0020900695 9.219563e-39
0.022274561 -0.043448877 -0.0002732545 9.219563e-39
0.022965539 -0.042794343 0.016849462 9.219563e-39
0.022127932 -0.043587774 0.00057891395 9.219563e-39
0.02245965 -0.04327355 0.0074544107 9.219563e-39
0.022682743 -0.043062221 0.0013528842 9.219563e-39
0.022838823 -0.042914376 0.019149657 9.219563e-39
0.022007292 -0.043702051 0.004587234 9.219563e-39
0.022424234 -0.043307099 0.0025175125 9.219563e-39
0.022768144 -0.042981327 0.0069287089 9.219563e-39
0.02262935 -0.0431128 0.010550622 9.219563e-39
0.022465099 -0.04326839 0.0062790634 9.219563e-39
0.022719961 -0.043026969 0.005159141 9.219563e-39
0.022645775 -0.043097239 0.011265785 9.219563e-39
0.022668054 -0.043076139 0.00034359418 9.219563e-39
0.022964766 -0.042795073 0.0090604126 9.219563e-39
0.0228811 -0.042874329 0.015791794 9.219563e-39
0.023031056 -0.042729244 0.0042674304 9.219563e-39
0.023443414 -0.042292167 0.012523985 9.219563e-39
0.023552336 -0.042176716 0.0086810607 9.219563e-39
0.023981137 -0.041722212 0.0018454477 9.219563e-39
0.023125777 -0.042628843 0.0057302495 9.219563e-39
0.023052383 -0.042706639 0.018130612 9.219563e-39
0.023181546 -0.042569734 0.01311794 9.219563e-39
0.023641327 -0.042082392 0.0055585215 9.219563e-39
0.023587771 -0.042139158 0.010602064 9.219563e-39
0.023643782 -0.042079788 0.011856179 9.219563e-39
0.023403721 -0.04233424 0.0098746251 9.219563e-39
0.023569701 -0.042158309 0.0079086376 9.219563e-39
0.023995565 -0.04170692 0.0031772668 9.219563e-39
0.023507653 -0.042224079 0.004279274 9.219563e-39
0.023819687 -0.041893341 0.0061722104 9.219563e-39
0.023288315 -0.042456564 0.00018128047 9.219563e-39
0.023384228 -0.042354904 0.0022977334 9.219563e-39
0.023271257 -0.042474646 0.011390949 9.219563e-39
0.02301142 -0.042750057 0.0030382765 9.219563e-39
0.023314834 -0.042428456 0.0065275566 9.219563e-39
0.023041412 -0.042718269 0.007621882 9.219563e-39
0.023966523 -0.041737702 0.00057390367 9.219563e-39
0.02311535 -0.042639896 0.014832817 9.219563e-39
0.023013681 -0.042747661 0.022368114 9.219563e-39
0.02357831 -0.042149186 0.0011114249 9.219563e-39
0.023205644 -0.04254419 0.013930775 9.219563e-39
0.023506029 -0.0422258 0.0035431653 9.219563e-39
0.023740593 -0.041977175 0.014147813 9.219563e-39
0.02367484 -0.042046867 0.022274241 9.219563e-39
0.024020538 -0.041680448 0.022810835 9.219563e-39
0.023848427 -0.041862875 0.019290287 9.219563e-39
0.023922326 -0.041784547 0.02135822 9.219563e-39
0.023572097 -0.042155772 0.016857401 9.219563e-39
0.023568237 -0.042159863 0.015077244 9.219563e-39
0.023763087 -0.041953333 0.018030845 9.219563e-39
0.024201352 -0.041488796 0.023618326 9.219563e-39
0.024226516 -0.041462123 0.0093223527 9.219563e-39
0.023313103 -0.042430289 0.019379746 9.219563e-39
0.02375224 -0.041964829 0.013223032 9.219563e-39
0.023902394 -0.041805677 0.024232615 9.219563e-39
0.02414286 -0.041550796 0.0069823465 9.219563e-39
0.023361772 -0.042378701 0.020149617 9.219563e-39
0.023885284 -0.041823808 0.015655292 9.219563e-39
0.023288922 -0.042455923 0.021682877 9.219563e-39
0.023918299 -0.041788816 0.0099651096 9.219563e-39
0.024232751 -0.041455515 0.0056170812 9.219563e-39
0.02347591 -0.042257726 0.02368114 9.219563e-39
0.023709202 -0.042010445 0.020685213 9.219563e-39
0.024787435 -0.040800195 0.007550498 9.219563e-39
0.024869204 -0.04070314 0.011289705 9.219563e-39
0.02427521 -0.041408166 0.020127714 9.219563e-39
0.024919089 -0.04064393 0.0068821064 9.219563e-39
0.024362873 -0.041304115 0.015562962 9.219563e-39
0.024769517 -0.040821463 0.0089069111 9.219563e-39
0.024297077 -0.041382208 0.0048321723 9.219563e-39
0.024367055 -0.041299149 0.012876076 9.219563e-39
0.024668699 -0.040941123 0.00065572659 9.219563e-39
0.024890741 -0.040677577 0.006124584 9.219563e-39
0.025073577 -0.040460568 0.0025642165 9.219563e-39
0.024466382 -0.041181255 0.011834984 9.219563e-39
0.02472131 -0.04087868 0.0040739849 9.219563e-39
0.025049973 -0.040488582 0.0011675969 9.219563e-39
0.024760097 -0.040832642 0.0052901828 9.219563e-39
0.024895463 -0.040671971 0.0095984619 9.219563e-39
0.024376484 -0.041287959 0.010821563 9.219563e-39
0.024408419 -0.041250054 0.018979589 9.219563e-39
0.025174767 -0.040340461 0.00020196706 9.219563e-39
0.024310187 -0.041366648 0.0077775903 9.219563e-39
0.024577638 -0.041049205 0.013764179 9.219563e-39
0.024394507 -0.041266568 0.0023852941 9.219563e-39
0.024861321 -0.040712494 0.0031845374 9.219563e-39
0.024472641 -0.041173831 0.0014776747 9.219563e-39
0.024429612 -0.041224901 0.018301966 9.219563e-39
0.024469716 -0.041177299 0.01708011 9.219563e-39
0.025251105 -0.040249854 0.01521347 9.219563e-39
0.024554597 -0.041076552 0.022886753 9.219563e-39
0.025048377 -0.040490478 0.014375877 9.219563e-39
0.025417203 -0.040052712 0.0070021935 9.219563e-39
0.025018869 -0.0405255 0.020350723 9.219563e-39
0.024966702 -0.040587418 0.01854524 9.219563e-39
0.024758775 -0.040834211 0.019796416 9.219563e-39
0.025187679 -0.040325135 0.013601799 9.219563e-39
0.024582334 -0.041043632 0.021351054 9.219563e-39
0.025092067 -0.040438619 0.010651521 9.219563e-39
0.025227338 -0.040278066 0.012305561 9.219563e-39
0.024854222 -0.040720921 0.015892671 9.219563e-39
0.02537024 -0.04010845 0.0061363913 9.219563e-39
0.025366718 -0.04011263 0.017786216 9.219563e-39
0.025323469 -0.040163964 0.0032044859 9.219563e-39
0.025211006 -0.040297449 0.0048150718 9.219563e-39
0.0251718 -0.040343985 0.024237318 9.219563e-39
0.024895594 -0.040671818 0.017805511 9.219563e-39
0.025242964 -0.040259518 0.0040362468 9.219563e-39
0.02444962 -0.041201152 0.024563124 9.219563e-39
0.025115956 -0.040410265 0.023141349 9.219563e-39
0.025081629 -0.040451009 0.021698263 9.219563e-39
0.024843108 -0.040734116 0.012923556 9.219563e-39
0.024401711 -0.041258018 0.02203232 9.219563e-39
0.025010744 -0.040535145 0.016569858 9.219563e-39
0.025282912 -0.040212102 0.011580157 9.219563e-39
0.02558933 -0.039825693 0.014346349 9.219563e-39
0.025448427 -0.040013388 0.0054402966 9.219563e-39
0.025641933 -0.039755624 0.01914306 9.219563e-39
0.025439 -0.040025942 0.021092035 9.219563e-39
0.026114495 -0.039126143 0.022516187 9.219563e-39
0.025592504 -0.039821468 0.01590264 9.219563e-39
0.025753606 -0.039606869 0.024220878 9.219563e-39
0.025666555 -0.039722826 0.010338822 9.219563e-39
0.026135085 -0.039098714 0.023807941 9.219563e-39
0.025661375 -0.039729726 0.013151912 9.219563e-39
0.026256777 -0.038936615 0.019439975 9.219563e-39
0.025683735 -0.039699942 0.0076929037 9.219563e-39
0.02590921 -0.039399594 0.02094641 9.219563e-39
0.025638169 -0.039760638 0.0088069374 9.219563e-39
0.025548235 -0.039880436 0.023383852 9.219563e-39
0.025513427 -0.039926801 0.016962918 9.219563e-39
0.025822764 -0.039514747 0.017989423 9.219563e-39
0.025581222 -0.039836492 0.022473846 9.219563e-39
0.026028924 -0.039240129 0.015810966 9.219563e-39
0.025974005 -0.039313283 0.017267602 9.219563e-39
0.026070064 -0.039185327 0.020130279 9.219563e-39
0.025968106 -0.039321139 0.0067879623 9.219563e-39
0.026314987 -0.038859077 0.0013111501 9.219563e-39
0.025863236 -0.039460834 0.0058789067 9.219563e-39
0.025827823 -0.039508007 0.0024369624 9.219563e-39
0.025993841 -0.039286859 0.0046412479 9.219563e-39
0.026119912 -0.039118927 0.0030001823 9.219563e-39
0.026491579 -0.038623843 0.017450364 9.219563e-39
0.026120374 -0.039118312 0.013904866 9.219563e-39
0.026034335 -0.039232921 0.0091581848 9.219563e-39
0.026010223 -0.03926504 0.010932022 9.219563e-39
0.026209196 -0.038999997 0.008108506 9.219563e-39
0.02590771 -0.039401595 0.0016037893 9.219563e-39
0.026446864 -0.038683407 0.010304844 9.219563e-39
0.026294079 -0.038886927 0.015192712 9.219563e-39
0.02631503 -0.038859017 0.0063590151 9.219563e-39
0.026473766 -0.038647573 0.0089573674 9.219563e-39
0.026307523 -0.038869016 0.016637186 9.219563e-39
0.02644584 -0.03868477 0.02193105 9.219563e-39
0.026109975 -0.039132163 0.0098727448 9.219563e-39
0.025670357 -0.03971776 0.0037533031 9.219563e-39
0.025902497 -0.039408538 5.9109076e-05 9.219563e-39
0.026250016 -0.038945619 0.0020418053 9.219563e-39
0.026527831 -0.038575552 0.014441421 9.219563e-39
0.025996119 -0.039283827 0.00078933773 9.219563e-39
0.025604837 -0.03980504 0.0010693803 9.219563e-39
0.026126565 -0.039110065 0.012123973 9.219563e-39
0.026373837 -0.038780682 0.013280614 9.219563e-39
0.026519025 -0.038587283 0.0057189721 9.219563e-39
0.02648204 -0.03863655 0.0070331451 9.219563e-39
0.026891718 -0.038029622 0.012913847 9.219563e-39
0.026538264 -0.038560048 0.023691827 9.219563e-39
0.026993833 -0.037876375 0.017453309 9.219563e-39
0.026560999 -0.038525928 0.0029784343 9.219563e-39
0.027194446 -0.037575319 0.018081386 9.219563e-39
0.026964394 -0.037920557 0.016118491 9.219563e-39
0.02677653 -0.038202483 0.01897333 9.219563e-39
0.026632879 -0.038418058 0.022980098 9.219563e-39
0.026781309 -0.038195312 0.024326162 9.219563e-39
0.026578115 -0.038500242 0.020593036 9.219563e-39
0.026939966 -0.037957218 0.019677101 9.219563e-39
0.026649106 -0.038393706 0.0079202028 9.219563e-39
0.026899666 -0.038017694 0.022113489 9.219563e-39
0.027000368 -0.03786657 0.013951032 9.219563e-39
0.027177172 -0.03760124 0.023632675 9.219563e-39
0.027150057 -0.037641935 0.020754788 9.219563e-39
0.026669357 -0.038363315 0.011263436 9.219563e-39
0.026729727 -0.03827272 0.015408467 9.219563e-39
0.026738495 -0.038259562 0.0049804109 9.219563e-39
0.026532847 -0.038568173 0.0037918815 9.219563e-39
0.026858477 -0.038079504 0.021212166 9.219563e-39
0.026843613 -0.038101811 0.009329359 9.219563e-39
0.02660675 -0.038457271 0.018289007 9.219563e-39
0.026818911 -0.038138881 0.012185177 9.219563e-39
0.027248526 -0.03749416 0.02465326 9.219563e-39
0.027506685 -0.037106745 0.021471797 9.219563e-39
0.027476806 -0.037151586 0.010195144 9.219563e-39
0.026821084 -0.038135618 0.0023309714 9.219563e-39
0.027490146 -0.037131563 0.015986746 9.219563e-39
0.027161129 -0.037625317 0.0055726026 9.219563e-39
0.026987799 -0.037885435 0.010540387 9.219563e-39
0.02717513 -0.037604306 0.0083391638 9.219563e-39
0.026921459 -0.03798499 0.0065419022 9.219563e-39
0.026711615 -0.0382999 0.0015024035 9.219563e-39
0.027457617 -0.037180383 0.012261124 9.219563e-39
0.027463216 -0.037171979 0.011088213 9.219563e-39
0.027478242 -0.037149429 0.013967984 9.219563e-39
0.027224537 -0.037530161 0.013238367 9.219563e-39
0.02655999 -0.038527444 0.00037091505 9.219563e-39
0.026832493 -0.0381185 -0.00018997202 9.219563e-39
0.02728373 -0.037441332 0.016854813 9.219563e-39
0.027195774 -0.037573326 0.00079157884 9.219563e-39
0.02714931 -0.037643056 0.011531286 9.219563e-39
0.02741183 -0.037249092 0.004914809 9.219563e-39
0.027350636 -0.037340928 0.019241143 9.219563e-39
0.027165189 -0.037619226 0.0076073869 9.219563e-39
0.027159343 -0.037627999 0.0018785234 9.219563e-39
0.027224032 -0.037530921 0.0040437607 9.219563e-39
0.027502116 -0.037113603 0.022461096 9.219563e-39
0.027286043 -0.03743786 0.0030444092 9.219563e-39
0.027160587 -0.037626132 0.01505886 9.219563e-39
0.027502704 -0.03711272 0.006618835 9.219563e-39
0.027887665 -0.03646576 0.0087848883 9.219563e-39
0.028368523 -0.0356481 0.00024762005 9.219563e-39
0.028182097 -0.035965104 0.0043170131 9.219563e-39
0.027820529 -0.036579914 0.015516479 9.219563e-39
0.028058404 -0.03617543 0.0072840862 9.219563e-39
0.027779453 -0.036649764 0.0010903667 9.219563e-39
0.027625101 -0.036912225 0.0058663362 9.219563e-39
0.027755372 -0.036690708 0.016703377 9.219563e-39
0.028249882 -0.035849839 0.00099992286 9.219563e-39
0.027553679 -0.03703367 0.00032105311 9.219563e-39
0.028001327 -0.036272485 0.0081228111 9.219563e-39
0.027593078 -0.036966678 0.019767636 9.219563e-39
0.027852478 -0.036525592 0.010000031 9.219563e-39
0.028096231 -0.036111109 0.0029668426 9.219563e-39
0.027896907 -0.036450043 0.01138593 9.219563e-39
0.027646253 -0.036876258 0.0019792893 9.219563e-39
0.027732832 -0.036729038 0.018586934 9.219563e-39
0.028288271 -0.035784561 0.0023376886 9.219563e-39
0.028090004 -0.0361217 0.005075078 9.219563e-39
0.02779568 -0.03662217 0.004354998 9.219563e-39
0.028199691 -0.035935182 0.0066279075 9.219563e-39
0.027565338 -0.037013847 0.0090918262 9.219563e-39
0.027902011 -0.036441363 0.013756345 9.219563e-39
0.028072309 -0.036151789 0.0015676426 9.219563e-39
0.027620491 -0.036920063 0.013165207 9.219563e-39
0.027620263 -0.036920451 0.0082406709 9.219563e-39
0.028144976 -0.036028225 0.016237505 9.219563e-39
0.02803212 -0.036220122 0.012567678 9.219563e-39
0.02810505 -0.036096115 0.019886876 9.219563e-39
0.028311033 -0.035745855 0.0077703181 9.219563e-39
0.028371209 -0.035643533 0.012907259 9.219563e-39
0.02785749 -0.036517069 0.017515862 9.219563e-39
0.028327221 -0.035718333 0.011433166 9.219563e-39
0.028236883 -0.035871945 0.017703099 9.219563e-39
0.027679412 -0.036819872 0.023613736 9.219563e-39
0.027940352 -0.036376171 0.022895737 9.219563e-39
0.028406788 -0.035583034 0.016837107 9.219563e-39
0.02828759 -0.035785723 0.022491841 9.219563e-39
0.028193979 -0.035944898 0.023652216 9.219563e-39
0.028428098 -0.035546798 0.0085603325 9.219563e-39
0.028175529 -0.035976272 0.015224946 9.219563e-39
0.028150102 -0.036019504 0.014402159 9.219563e-39
0.028047344 -0.036194239 0.019054903 9.219563e-39
0.028158581 -0.036005091 0.018360032 9.219563e-39
0.028192775 -0.035946947 0.02131691 9.219563e-39
0.027835077 -0.036555178 0.020971224 9.219563e-39
0.028085932 -0.036128622 0.010650464 9.219563e-39
0.028414709 -0.035569564 0.013825604 9.219563e-39
0.028305791 -0.03575477 0.0101369 9.219563e-39
0.028061533 -0.03617011 0.024577696 9.219563e-39
0.028464444 -0.035484996 0.02318725 9.219563e-39
0.028879596 -0.034679051 0.023319386 9.219563e-39
0.028782522 -0.0348676 0.011040634 9.219563e-39
0.028493395 -0.035429191 0.0071277083 9.219563e-39
0.028509589 -0.035397738 0.020778133 9.219563e-39
0.029169215 -0.034116503 0.023041327 9.219563e-39
0.028832152 -0.0347712 0.020995425 9.219563e-39
0.029070595 -0.034308057 0.019694077 9.219563e-39
0.028860684 -0.034715783 0.022001186 9.219563e-39
0.028623112 -0.035177238 0.0050664251 9.219563e-39
0.028699955 -0.035027981 0.011726842 9.219563e-39
0.029044537 -0.034358673 0.018945372 9.219563e-39
0.028482929 -0.035449523 0.024446085 9.219563e-39
0.028522853 -0.035371974 0.0094418591 9.219563e-39
0.028704334 -0.035019472 0.012929212 9.219563e-39
0.028632736 -0.035158541 0.016307272 9.219563e-39
0.028468011 -0.035478499 0.01942328 9.219563e-39
0.028996363 -0.034452245 0.016064022 9.219563e-39
0.028702961 -0.03502214 0.02389388 9.219563e-39
0.028528754 -0.035360515 0.021694593 9.219563e-39
0.028746445 -0.03493768 0.0099779163 9.219563e-39
0.028592315 -0.035237055 0.0063270088 9.219563e-39
0.029087044 -0.034276109 0.024052424 9.219563e-39
0.028509339 -0.035398223 0.0033357632 9.219563e-39
0.028468672 -0.035477214 0.01080583 9.219563e-39
0.028607199 -0.035208143 0.017941067 9.219563e-39
0.028904511 -0.034630656 0.013534678 9.219563e-39
0.028777873 -0.034876633 0.017096128 9.219563e-39
0.02873506 -0.034959789 0.014822314 9.219563e-39
0.02871543 -0.034997921 0.01863315 9.219563e-39
0.029250214 -0.033959173 0.021514425 9.219563e-39
0.029172629 -0.034109872 0.020765433 9.219563e-39
0.028954828 -0.03453292 0.012460096 9.219563e-39
0.029257469 -0.03394508 0.0054227347 9.219563e-39
0.0292842 -0.033893161 0.0028198478 9.219563e-39
0.028921241 -0.034598157 0.005563458 9.219563e-39
0.029279836 -0.033901636 0.011342307 9.219563e-39
0.029200526 -0.034055684 0.014798442 9.219563e-39
0.029104136 -0.034242909 0.0081943609 9.219563e-39
0.029283231 -0.033895038 0.014109318 9.219563e-39
0.028945932 -0.034550201 0.0048462939 9.219563e-39
0.029185664 -0.034084555 0.0073315962 9.219563e-39
0.028751805 -0.034927268 0.0026690161 9.219563e-39
0.02901667 -0.034412801 0.010515952 9.219563e-39
0.028685927 -0.035055228 0.0043331459 9.219563e-39
0.029089779 -0.034270797 0.00048985938 9.219563e-39
0.028629415 -0.035164993 0.00083436066 9.219563e-39
0.029243357 -0.033972491 0.017745575 9.219563e-39
0.028856607 -0.034723703 0.0067347982 9.219563e-39
0.028979659 -0.034484688 0.0038690795 9.219563e-39
0.028799817 -0.034834012 0.0015884512 9.219563e-39
0.028875563 -0.034686882 0.0076180231 9.219563e-39
0.028793214 -0.034846835 0.0089352541 9.219563e-39
0.029299287 -0.033863854 0.0093139689 9.219563e-39
0.028893458 -0.034652125 -0.00023526684 9.219563e-39
0.029201446 -0.034053899 0.0013717369 9.219563e-39
0.029828049 -0.032678235 0.019064296 9.219563e-39
0.02947849 -0.033462524 0.020403106 9.219563e-39
0.029836969 -0.032658223 0.0075556748 9.219563e-39
0.029947847 -0.032409452 0.011860669 9.219563e-39
0.029957213 -0.032388438 0.0049917442 9.219563e-39
0.029754611 -0.032843005 0.010253522 9.219563e-39
0.029942593 -0.032421239 0.0207971 9.219563e-39
0.030005826 -0.032279365 0.019900456 9.219563e-39
0.029689379 -0.032989364 0.012475383 9.219563e-39
0.029547494 -0.033307705 0.021062026 9.219563e-39
0.029890642 -0.032537803 0.0057950858 9.219563e-39
0.029625887 -0.033131819 0.019549584 9.219563e-39
0.029543018 -0.033317748 0.024343712 9.219563e-39
0.029383289 -0.033676125 0.022326952 9.219563e-39
0.029630521 -0.033121422 0.021980526 9.219563e-39
0.029749157 -0.032855242 0.017790802 9.219563e-39
0.029789058 -0.03276572 0.011271456 9.219563e-39
0.029651346 -0.033074696 0.023464026 9.219563e-39
0.029854426 -0.032619055 0.015606408 9.219563e-39
0.029929889 -0.032449741 0.014138754 9.219563e-39
0.030033702 -0.032216821 0.024027264 9.219563e-39
0.029882433 -0.032556217 0.013351603 9.219563e-39
0.029624287 -0.03313541 0.013889273 9.219563e-39
0.029859982 -0.032606591 0.0093781156 9.219563e-39
0.029352158 -0.033745971 0.018616496 9.219563e-39
0.02942089 -0.033591762 0.012101235 9.219563e-39
0.029724784 -0.032909926 0.0082245106 9.219563e-39
0.029474881 -0.033470627 0.010770391 9.219563e-39
0.029823551 -0.032688331 0.0022842179 9.219563e-39
0.029350279 -0.033750188 0.017032409 9.219563e-39
0.029560087 -0.033279452 0.0001774847 9.219563e-39
0.029491529 -0.033433273 0.0073303883 9.219563e-39
0.029649641 -0.033078521 0.0065737492 9.219563e-39
0.029633518 -0.033114698 0.0035843942 9.219563e-39
0.029393271 -0.033653732 0.013241765 9.219563e-39
0.029608712 -0.033170354 0.0010378427 9.219563e-39
0.029939612 -0.032427929 0.00094828475 9.219563e-39
0.029590497 -0.033211224 0.0095759518 9.219563e-39
0.029425712 -0.033580944 0.0083700456 9.219563e-39
0.029542238 -0.033319499 0.0017774563 9.219563e-39
0.029548822 -0.033304729 0.016246071 9.219563e-39
0.02933331 -0.033788264 0.0037796181 9.219563e-39
0.029338043 -0.033777643 -0.00026236984 9.219563e-39
0.029754972 -0.032842193 0.0043170541 9.219563e-39
0.029390205 -0.033660609 0.0046922015 9.219563e-39
0.029566422 -0.033265237 0.0026836013 9.219563e-39
0.029545147 -0.033312973 0.014775447 9.219563e-39
0.029325379 -0.033806056 0.0067006163 9.219563e-39
0.030587975 -0.030762341 0.00816797 9.219563e-39
0.030569522 -0.030810909 0.015493377 9.219563e-39
0.030440988 -0.031149199 0.009524161 9.219563e-39
0.030576695 -0.030792031 0.014103151 9.219563e-39
0.030576305 -0.030793054 0.022490997 9.219563e-39
0.030375136 -0.03132252 0.020034658 9.219563e-39
0.030683938 -0.030509774 0.021161703 9.219563e-39
0.030675272 -0.03053258 0.023430424 9.219563e-39
0.030316982 -0.031475574 0.024172442 9.219563e-39
0.030692825 -0.030486381 0.00054982601 9.219563e-39
0.030562241 -0.03083007 0.016831132 9.219563e-39
0.030641174 -0.030622324 0.020441817 9.219563e-39
0.030611409 -0.030700667 0.0050327382 9.219563e-39
0.030686153 -0.030503944 0.010132819 9.219563e-39
0.030366078 -0.031346358 0.023101263 9.219563e-39
0.030267676 -0.031605344 0.020979112 9.219563e-39
0.030669205 -0.03054855 0.018787649 9.219563e-39
0.030290695 -0.03154476 0.022387646 9.219563e-39
0.030584725 -0.030770894 0.017593198 9.219563e-39
0.030389171 -0.03128558 0.018428236 9.219563e-39
0.030580251 -0.030782674 0.019663466 9.219563e-39
0.03029817 -0.031525087 0.016600851 9.219563e-39
0.030460855 -0.031096909 0.013360906 9.219563e-39
0.030683825 -0.03051007 0.0072895 9.219563e-39
0.030756081 -0.030286979 0.0090190051 9.219563e-39
0.030849611 -0.029991884 0.015360618 9.219563e-39
0.030759299 -0.030276829 0.016362824 9.219563e-39
0.031092346 -0.029226027 0.024573648 9.219563e-39
0.031036617 -0.029401861 0.021424226 9.219563e-39
0.030743554 -0.030326504 0.0042690644 9.219563e-39
0.031006407 -0.029497178 0.016167436 9.219563e-39
0.030745042 -0.03032181 0.002568129 9.219563e-39
0.030931834 -0.029732462 0.024097277 9.219563e-39
0.030769767 -0.030243801 0.013550807 9.219563e-39
0.03089048 -0.029862938 0.017092491 9.219563e-39
0.030858288 -0.029964505 0.0083990181 9.219563e-39
0.030970596 -0.029610164 0.023168979 9.219563e-39
0.03087529 -0.029910864 0.01889208 9.219563e-39
0.030836755 -0.030032445 0.011125452 9.219563e-39
0.030698085 -0.030469961 0.012074774 9.219563e-39
0.030707875 -0.030439075 0.0063828053 9.219563e-39
0.03091884 -0.029773459 0.01806063 9.219563e-39
0.030893827 -0.029852377 0.020902719 9.219563e-39
0.030877925 -0.029902546 0.019706108 9.219563e-39
0.030865608 -0.02994141 0.014450016 9.219563e-39
0.031068956 -0.029299824 0.020392541 9.219563e-39
0.030803388 -0.030137721 0.022097521 9.219563e-39
0.030259488 -0.031626895 0.0023177925 9.219563e-39
0.030190839 -0.031807572 0.013319703 9.219563e-39
0.030386822 -0.031291761 0.011375934 9.219563e-39
0.030049292 -0.032180116 0.023200063 9.219563e-39
0.030265318 -0.031611551 0.00016680441 9.219563e-39
0.030130997 -0.031965073 0.0096016973 9.219563e-39
0.030312819 -0.03148653 0.008643874 9.219563e-39
0.030119548 -0.031995211 0.0072664414 9.219563e-39
0.030525165 -0.030927651 0.0031342551 9.219563e-39
0.030242959 -0.031670399 0.0045685112 9.219563e-39
0.030505415 -0.030979631 0.0011913338 9.219563e-39
0.030339133 -0.031417277 0.0059050405 9.219563e-39
0.030202284 -0.031777453 0.00096975639 9.219563e-39
0.030475536 -0.031058269 0.0043194918 9.219563e-39
0.030149078 -0.031917483 0.01573192 9.219563e-39
0.030047376 -0.03218516 0.016492158 9.219563e-39
0.030140724 -0.031939473 0.019035511 9.219563e-39
0.030474233 -0.031061705 0.0069258357 9.219563e-39
0.030061603 -0.032147717 0.0039067632 9.219563e-39
0.030068018 -0.032130834 0.021777961 9.219563e-39
0.030194992 -0.031796642 0.0053450046 9.219563e-39
0.030283755 -0.031563029 0.014506761 9.219563e-39
0.030095248 -0.032059163 0.003039221 9.219563e-39
0.030163409 -0.031879768 0.012258241 9.219563e-39
0.030095484 -0.032058544 0.018326042 9.219563e-39
0.030095126 -0.032059483 0.0062635215 9.219563e-39
0.0302159 -0.031741615 0.010303712 9.219563e-39
0.030402081 -0.031251598 0.007597167 9.219563e-39
0.030127238 -0.031974968 0.011023744 9.219563e-39
0.030070942 -0.032123134 0.017623147 9.219563e-39
0.030048354 -0.032182585 0.0016492854 9.219563e-39
0.030073378 -0.032116722 0.0080923047 9.219563e-39
0.030995211 -0.029532501 0.0061835167 9.219563e-39
0.031153157 -0.02903416 0.0075617759 9.219563e-39
0.031192461 -0.028910156 0.016466375 9.219563e-39
0.030938178 -0.029712444 0.0036537685 9.219563e-39
0.030947713 -0.029682359 0.0098660626 9.219563e-39
0.031170737 -0.028978696 0.013665969 9.219563e-39
0.030915769 -0.029783148 0.001145571 9.219563e-39
0.031059688 -0.029329069 0.014640768 9.219563e-39
0.031084923 -0.02924945 0.0051117297 9.219563e-39
0.031073771 -0.029284632 0.0090693478 9.219563e-39
0.031178158 -0.028955283 0.0058383709 9.219563e-39
0.031203184 -0.028876323 0.018475845 9.219563e-39
0.031237129 -0.028769221 0.021015964 9.219563e-39
0.031013701 -0.029474163 0.013054032 9.219563e-39
0.031121511 -0.029134007 0.017743476 9.219563e-39
0.031098578 -0.029206367 0.011467158 9.219563e-39
0.031240718 -0.0287579 0.024059273 9.219563e-39
0.031125328 -0.029121967 0.0030492814 9.219563e-39
0.031211041 -0.028851533 0.022071911 9.219563e-39
0.030963441 -0.029632736 0.0023718888 9.219563e-39
0.030848034 -0.029996861 0.0048802122 9.219563e-39
0.030918002 -0.029776102 0.0071719624 9.219563e-39
0.031032171 -0.029415889 0.012168642 9.219563e-39
0.030997682 -0.029524704 0.004352842 9.219563e-39
0.031166397 -0.028992388 0.010734144 9.219563e-39
0.03096058 -0.029641762 0.00038373354 9.219563e-39
0.031586636 -0.027410403 0.023874108 9.219563e-39
0.031675655 -0.027062865 0.018485727 9.219563e-39
0.031472538 -0.027855834 0.01446781 9.219563e-39
0.031435892 -0.027998898 0.023420634 9.219563e-39
0.031657975 -0.027131891 0.0098031284 9.219563e-39
0.031547729 -0.027562296 0.020891545 9.219563e-39
0.031531621 -0.027625183 0.019527219 9.219563e-39
0.031380698 -0.028214375 0.018538797 9.219563e-39
0.031686917 -0.027018903 0.021712095 9.219563e-39
0.03163714 -0.027213231 0.0076126009 9.219563e-39
0.031650543 -0.027160913 0.020279359 9.219563e-39
0.03158268 -0.02742584 0.012159552 9.219563e-39
0.031488452 -0.027793702 0.021702265 9.219563e-39
0.031624544 -0.027262403 0.011247182 9.219563e-39
0.031618815 -0.027284771 0.0052705933 9.219563e-39
0.03152227 -0.027661679 0.017518099 9.219563e-39
0.031610351 -0.027317809 0.014040131 9.219563e-39
0.031558592 -0.027519885 0.016146572 9.219563e-39
0.03157609 -0.027451571 0.015094481 9.219563e-39
0.03135037 -0.028332775 0.022779603 9.219563e-39
0.031927571 -0.025810303 0.020582255 9.219563e-39
0.031812444 -0.026394462 0.018640101 9.219563e-39
0.031709842 -0.026915086 0.017676467 9.219563e-39
0.031851113 -0.026198264 0.023248862 9.219563e-39
0.031774048 -0.026589299 0.0070835934 9.219563e-39
0.031934302 -0.025776146 0.022437049 9.219563e-39
0.031839341 -0.026257999 0.013775062 9.219563e-39
0.031881057 -0.026046321 0.019850889 9.219563e-39
0.031789314 -0.026511839 0.010705325 9.219563e-39
0.03189376 -0.02598186 0.024004648 9.219563e-39
0.031747509 -0.026723955 0.019644435 9.219563e-39
0.03170849 -0.026921935 0.022824461 9.219563e-39
0.031752378 -0.026699249 0.012245769 9.219563e-39
0.031796828 -0.026473699 0.020588785 9.219563e-39
0.031739276 -0.026765725 0.013033525 9.219563e-39
0.031770017 -0.026609739 0.014374484 9.219563e-39
0.031742584 -0.026748937 0.0035033098 9.219563e-39
0.031742249 -0.026750648 0.0083605461 9.219563e-39
0.031800751 -0.026453806 0.016441461 9.219563e-39
0.031758387 -0.026668765 0.015234536 9.219563e-39
0.031785619 -0.026530588 0.011542889 9.219563e-39
0.031738739 -0.026768455 0.0062602088 9.219563e-39
0.031874884 -0.02607765 0.017983643 9.219563e-39
0.031833138 -0.026289474 0.021879373 9.219563e-39
0.031993482 -0.025475865 0.023295347 9.219563e-39
0.031887297 -0.026014667 0.0172623 9.219563e-39
0.031482611 -0.027816512 0.0086927647 9.219563e-39
0.031295247 -0.028547965 0.00245377 9.219563e-39
0.031364899 -0.028276049 0.0036554544 9.219563e-39
0.031359978 -0.028295266 0.0055828327 9.219563e-39
0.031370908 -0.028252596 0.0063767163 9.219563e-39
0.031342186 -0.028364718 0.00059998519 9.219563e-39
0.031397689 -0.028148035 0.012502316 9.219563e-39
0.031371571 -0.028250003 0.016922468 9.219563e-39
0.031262159 -0.028677139 0.0015023322 9.219563e-39
0.031283278 -0.028594704 0.0093524307 9.219563e-39
0.031293407 -0.028555155 0.011751264 9.219563e-39
0.031254172 -0.028708331 -0.00016363933 9.219563e-39
0.031460032 -0.027904656 0.011571523 9.219563e-39
0.031495873 -0.027764732 0.0071251853 9.219563e-39
0.031349655 -0.028335562 0.015234866 9.219563e-39
0.031349882 -0.028334672 0.017681561 9.219563e-39
0.031470302 -0.02786456 0.009405979 9.219563e-39
0.031264912 -0.028666399 0.019202964 9.219563e-39
0.031247523 -0.028734291 0.0085555688 9.219563e-39
0.031607125 -0.02733041 0.002890511 9.219563e-39
0.031487234 -0.027798466 0.010740152 9.219563e-39
0.031459872 -0.027905285 -0.00031033068 9.219563e-39
0.031430535 -0.028019805 0.013379838 9.219563e-39
0.031607464 -0.027329082 0.00031527862 9.219563e-39
0.031556625 -0.027527561 0.0018064408 9.219563e-39
0.031559534 -0.027516201 0.0059709349 9.219563e-39
0.031304307 -0.028512599 0.020273406 9.219563e-39
0.031486448 -0.027801536 0.0046834643 9.219563e-39
0.031980015 -0.025544206 0.0044300025 9.219563e-39
0.031960607 -0.025642674 0.015798619 9.219563e-39
0.031983335 -0.025527356 0.000488394 9.219563e-39
0.03179495 -0.02648323 0.0013476656 9.219563e-39
0.032041479 -0.025232319 0.016552102 9.219563e-39
0.031938288 -0.025755916 0.011745029 9.219563e-39
0.031900104 -0.025949666 0.0068844045 9.219563e-39
0.03175373 -0.02669239 0.002636598 9.219563e-39
0.03202365 -0.025322802 0.021740234 9.219563e-39
0.031988733 -0.02549997 0.019136969 9.219563e-39
0.031936735 -0.0257638 0.014357015 9.219563e-39
0.031880517 -0.026049057 0.0052513308 9.219563e-39
0.03201114 -0.025386266 0.017910175 9.219563e-39
0.031801008 -0.0264525 0.0045490153 9.219563e-39
0.031960685 -0.025642287 0.0033852886 9.219563e-39
0.031997103 -0.025457492 0.013144013 9.219563e-39
0.031895559 -0.025972731 0.0059496495 9.219563e-39
0.031886529 -0.026018551 0.0089128744 9.219563e-39
0.032019284 -0.025344951 0.0078945141 9.219563e-39
0.031825896 -0.026326219 0.0001336235 9.219563e-39
0.032026451 -0.025308583 0.0053656059 9.219563e-39
0.031993404 -0.025476271 0.0098313252 9.219563e-39
0.0319569 -0.025661485 0.010715066 9.219563e-39
0.031982739 -0.025530389 0.012472486 9.219563e-39
0.03190966 -0.025901189 0.0023693598 9.219563e-39
0.032192755 -0.024165489 0.013929697 9.219563e-39
0.032094773 -0.024868842 0.015596105 9.219563e-39
0.032106332 -0.024785858 0.024137339 9.219563e-39
