# .PCD v0.7 - Point Cloud Data file format
VERSION 0.7
FIELDS x y z rgb
SIZE 4 4 4 4
TYPE F F F F
COUNT 1 1 1 1
WIDTH 952
HEIGHT 1
VIEWPOINT 0 0 0 1 0 0 0
POINTS 952
DATA ascii
-0.024224272 0.012702188 0.049742516 9.219563e-39
-0.024253437 0.011008581 0.04964425 9.219563e-39
-0.024255892 0.015802799 0.049635977 9.219563e-39
-0.024004886 0.019590022 0.050481703 9.219563e-39
-0.024086485 0.015538586 0.050206769 9.219563e-39
-0.024432143 0.019899948 0.049042132 9.219563e-39
-0.024315611 0.011733447 0.049434766 9.219563e-39
-0.024382884 0.018231759 0.049208101 9.219563e-39
-0.024334149 0.013772774 0.049372304 9.219563e-39
-0.02427824 0.015433426 0.049560677 9.219563e-39
-0.02423932 0.019982824 0.049691815 9.219563e-39
-0.024198633 0.016366627 0.049828909 9.219563e-39
-0.024081474 0.017442297 0.050223652 9.219563e-39
-0.024305806 0.01923573 0.049467806 9.219563e-39
-0.024382314 0.017176814 0.049210023 9.219563e-39
-0.024553822 0.0078987237 0.048509251 9.219563e-39
-0.024471413 0.012960938 0.048870306 9.219563e-39
-0.024438664 0.0042131743 0.049013793 9.219563e-39
-0.024467533 0.0050671482 0.048887309 9.219563e-39
-0.024620175 0.011524919 0.048218537 9.219563e-39
-0.024513116 0.010880316 0.048687596 9.219563e-39
-0.02465 0.017429477 0.048087869 9.219563e-39
-0.02448828 0.017340889 0.048796412 9.219563e-39
-0.024736285 0.018908447 0.04770983 9.219563e-39
-0.024465969 0.0075341188 0.048894167 9.219563e-39
-0.024590224 0.012158786 0.048349764 9.219563e-39
-0.024441162 0.0014509886 0.049002845 9.219563e-39
-0.024442537 0.0060421042 0.048996821 9.219563e-39
-0.024622489 0.014012108 0.048208401 9.219563e-39
-0.02452819 0.0067910664 0.048621554 9.219563e-39
-0.024605418 0.015628196 0.048283197 9.219563e-39
-0.024523348 0.016748238 0.048642773 9.219563e-39
-0.02463278 0.018893324 0.048163317 9.219563e-39
-0.024506556 0.014151101 0.048716336 9.219563e-39
-0.024494914 0.011981606 0.048767343 9.219563e-39
-0.02471371 0.018092036 0.047808737 9.219563e-39
-0.024511 0.0093229832 0.048696868 9.219563e-39
-0.024621069 0.016470818 0.048214626 9.219563e-39
-0.024456194 0.0082108658 0.048936985 9.219563e-39
-0.024696318 0.016772205 0.047884934 9.219563e-39
-0.024506977 0.016306434 0.0487145 9.219563e-39
-0.024668494 0.01441598 0.048006844 9.219563e-39
-0.02464802 0.019375499 0.048096545 9.219563e-39
-0.024451587 0.011225016 0.048957169 9.219563e-39
-0.024615742 0.017756782 0.048237957 9.219563e-39
-0.024506232 0.019035647 0.048717756 9.219563e-39
-0.024572935 0.01963559 0.048425514 9.219563e-39
-0.024557687 0.0096796406 0.04849232 9.219563e-39
-0.024470234 0.0034353698 0.048875473 9.219563e-39
-0.024694016 0.015260132 0.047895022 9.219563e-39
-0.024455508 0.0054683238 0.048939992 9.219563e-39
-0.024457129 0.0021008707 0.048932895 9.219563e-39
-0.024516415 0.0058554704 0.048673145 9.219563e-39
-0.024534751 0.014529263 0.04859281 9.219563e-39
-0.024465701 0.017991286 0.048895337 9.219563e-39
-0.024550321 0.01516642 0.048524588 9.219563e-39
-0.024532406 0.010238153 0.04860308 9.219563e-39
-0.024481993 0.011580873 0.048823949 9.219563e-39
-0.024590002 0.010643796 0.048350736 9.219563e-39
-0.024552157 0.017114002 0.048516545 9.219563e-39
-0.024598934 0.018242007 0.048311606 9.219563e-39
-0.024539638 0.013537092 0.048571397 9.219563e-39
-0.024548145 0.013112519 0.048534125 9.219563e-39
-0.024563951 0.016033765 0.048464868 9.219563e-39
-0.024743591 0.019387459 0.047677822 9.219563e-39
-0.024557337 0.020046309 0.048493851 9.219563e-39
-0.024633233 0.014878869 0.048161335 9.219563e-39
-0.0245445 0.0074113426 0.048550095 9.219563e-39
-0.024451451 0.0089375433 0.048957769 9.219563e-39
-0.024497168 0.015733887 0.048757467 9.219563e-39
-0.02443311 0.012290179 0.049038127 9.219563e-39
-0.02447038 0.0096947225 0.048874833 9.219563e-39
-0.024502387 0.012507963 0.048734598 9.219563e-39
-0.024648195 0.013559788 0.048095778 9.219563e-39
-0.024650736 0.012661266 0.048084643 9.219563e-39
-0.024532592 0.018598547 0.048602264 9.219563e-39
-0.024069205 0.0049217213 0.050264992 9.219563e-39
-0.024315661 0.0011478834 0.049434599 9.219563e-39
-0.024311412 0.0019714816 0.049448915 9.219563e-39
-0.024015529 0.0099617727 0.05044584 9.219563e-39
-0.024179544 0.010074517 0.049893219 9.219563e-39
-0.024214942 0.0092500253 0.04977395 9.219563e-39
-0.024045641 0.010941894 0.050344385 9.219563e-39
-0.024274969 0.0034691435 0.0495717 9.219563e-39
-0.024290336 0.006409443 0.049519926 9.219563e-39
-0.024105709 0.010419269 0.050141994 9.219563e-39
-0.023978779 0.010577014 0.050569661 9.219563e-39
-0.024011461 0.0084920218 0.050459549 9.219563e-39
-0.024124477 0.00094108755 0.050078761 9.219563e-39
-0.024085833 0.0016820976 0.050208967 9.219563e-39
-0.024307275 0.0030795054 0.049462855 9.219563e-39
-0.024061199 0.0089229904 0.050291963 9.219563e-39
-0.024089735 0.009607262 0.050195821 9.219563e-39
-0.024227021 0.0071574785 0.049733255 9.219563e-39
-0.024004914 0.0010762328 0.05048161 9.219563e-39
-0.024148479 0.0037085055 0.049997885 9.219563e-39
-0.024374278 0.0023148214 0.049237099 9.219563e-39
-0.024192894 0.0054818001 0.04984824 9.219563e-39
-0.023994625 0.013187731 0.050516278 9.219563e-39
-0.024065321 0.012480233 0.050278071 9.219563e-39
-0.023995433 0.0094593121 0.050513551 9.219563e-39
-0.024275413 0.0007366194 0.04957021 9.219563e-39
-0.023977127 0.0037470118 0.050575234 9.219563e-39
-0.024018647 0.0054787947 0.050435334 9.219563e-39
-0.02405799 0.0040409775 0.050302777 9.219563e-39
-0.023991279 0.0063451715 0.050527547 9.219563e-39
-0.024111876 0.0044865157 0.050121214 9.219563e-39
-0.02432845 0.0015246652 0.049391508 9.219563e-39
-0.024009839 0.018303687 0.050465014 9.219563e-39
-0.024191083 0.0061982605 0.049854342 9.219563e-39
-0.024203654 0.0077351453 0.049811985 9.219563e-39
-0.024087859 0.0003012637 0.050202135 9.219563e-39
-0.024023188 0.015991449 0.050420035 9.219563e-39
-0.024103586 0.0025156876 0.050149154 9.219563e-39
-0.024210555 0.002518737 0.049788732 9.219563e-39
-0.024127902 0.013539628 0.05006722 9.219563e-39
-0.024030838 0.016677199 0.050394259 9.219563e-39
-0.024307843 0.0026548528 0.049460936 9.219563e-39
-0.024201564 0.0014203014 0.04981903 9.219563e-39
-0.024260491 0.0039240089 0.049620487 9.219563e-39
-0.02420626 0.00040208263 0.049803205 9.219563e-39
-0.02409911 0.0064595966 0.050164234 9.219563e-39
-0.024112213 0.0070800944 0.050120082 9.219563e-39
-0.02402252 0.014955961 0.050422288 9.219563e-39
-0.024113867 0.0080850767 0.050114505 9.219563e-39
-0.024040636 0.003421288 0.05036125 9.219563e-39
-0.024204191 0.0018840516 0.049810179 9.219563e-39
-0.024040947 0.013809303 0.050360203 9.219563e-39
-0.023994928 0.0023121857 0.050515253 9.219563e-39
-0.023994805 0.011473268 0.05051567 9.219563e-39
-0.023988582 0.0030074548 0.050536636 9.219563e-39
-0.024129737 0.0031504384 0.050061036 9.219563e-39
-0.02411679 0.011580569 0.050104659 9.219563e-39
-0.024329353 0.0046839784 0.049388468 9.219563e-39
-0.024199532 0.0049365382 0.049825873 9.219563e-39
-0.024234679 0.0044521485 0.049707454 9.219563e-39
-0.024047492 0.0145898 0.050338145 9.219563e-39
-0.024088258 0.0077285091 0.050200798 9.219563e-39
-0.024172677 0.0086232973 0.049916357 9.219563e-39
-0.02488446 0.0082155364 0.046888378 9.219563e-39
-0.024819998 0.0034646702 0.047287095 9.219563e-39
-0.024970623 0.017766682 0.046355437 9.219563e-39
-0.025016891 0.018447738 0.046069246 9.219563e-39
-0.024969295 0.018217647 0.046363648 9.219563e-39
-0.024800383 0.014283137 0.047408424 9.219563e-39
-0.024886927 0.016776776 0.046873122 9.219563e-39
-0.024826426 0.016561629 0.047247339 9.219563e-39
-0.024935953 0.014122466 0.046569876 9.219563e-39
-0.02480505 0.0025538588 0.047379561 9.219563e-39
-0.024840767 0.0048624934 0.047158644 9.219563e-39
-0.024959233 0.016921738 0.046425883 9.219563e-39
-0.024887362 0.010170004 0.046870425 9.219563e-39
-0.02487083 0.017446995 0.046972688 9.219563e-39
-0.024808308 0.012531104 0.047359403 9.219563e-39
-0.024809223 0.014822739 0.047353752 9.219563e-39
-0.024806101 0.0086414106 0.047373053 9.219563e-39
-0.024834942 0.017003419 0.047194663 9.219563e-39
-0.024849925 0.0079154829 0.047101993 9.219563e-39
-0.024886558 0.0088827629 0.046875406 9.219563e-39
-0.024921017 0.010922366 0.046662267 9.219563e-39
-0.024939327 0.015643202 0.046549007 9.219563e-39
-0.024856638 0.014571154 0.047060467 9.219563e-39
-0.024867788 0.016114412 0.046991501 9.219563e-39
-0.024955202 0.016490698 0.046450824 9.219563e-39
-0.024796057 0.013781685 0.047435176 9.219563e-39
-0.024865909 0.014211995 0.047003128 9.219563e-39
-0.024828844 0.013375112 0.047232386 9.219563e-39
-0.024914034 0.018463068 0.046705458 9.219563e-39
-0.024932709 0.012505092 0.046589952 9.219563e-39
-0.024914818 0.011456025 0.046700601 9.219563e-39
-0.024909081 0.018842479 0.046736099 9.219563e-39
-0.024865186 0.011154131 0.047007602 9.219563e-39
-0.024946883 0.013651463 0.04650227 9.219563e-39
-0.024821557 0.0074529238 0.047277458 9.219563e-39
-0.024843708 0.018712768 0.047140453 9.219563e-39
-0.02479212 0.015405145 0.047459535 9.219563e-39
-0.024866143 0.019897372 0.047001678 9.219563e-39
-0.024878774 0.0075632702 0.046923555 9.219563e-39
-0.024979077 0.019838503 0.046303146 9.219563e-39
-0.024850065 0.0062989667 0.047101125 9.219563e-39
-0.024956936 0.019476265 0.046440091 9.219563e-39
-0.02488048 0.017838323 0.046912998 9.219563e-39
-0.024819842 0.010649728 0.047288071 9.219563e-39
-0.024855465 0.0093542812 0.047067724 9.219563e-39
-0.024805553 0.01579977 0.047376439 9.219563e-39
-0.024941007 0.012984294 0.046538621 9.219563e-39
-0.024830461 0.011971152 0.04722238 9.219563e-39
-0.024880273 0.010608348 0.046914283 9.219563e-39
-0.02492396 0.014513588 0.046644062 9.219563e-39
-0.02496762 0.017341487 0.046374008 9.219563e-39
-0.024863593 0.015706591 0.047017451 9.219563e-39
-0.024979779 0.019040793 0.046298802 9.219563e-39
-0.024824487 0.0058971904 0.047259338 9.219563e-39
-0.025028771 0.019522674 0.045995768 9.219563e-39
-0.024808986 0.010124222 0.047355216 9.219563e-39
-0.024793724 0.0012828313 0.047449619 9.219563e-39
-0.024810506 0.0043972265 0.047345813 9.219563e-39
-0.024816215 0.011592147 0.047310498 9.219563e-39
-0.024818392 0.006820491 0.047297034 9.219563e-39
-0.024798717 0.0039118459 0.047418721 9.219563e-39
-0.024849806 0.0097626466 0.047102731 9.219563e-39
-0.024869872 0.013681194 0.046978615 9.219563e-39
-0.02488758 0.01202723 0.046869073 9.219563e-39
-0.024790142 0.019826112 0.047471769 9.219563e-39
-0.024876712 0.014948723 0.046936307 9.219563e-39
-0.024958901 0.016028628 0.046427932 9.219563e-39
-0.024802063 0.018245298 0.047398042 9.219563e-39
-0.024797983 0.0081937397 0.04742327 9.219563e-39
-0.024930527 0.015264763 0.046603438 9.219563e-39
-0.024870571 0.019175118 0.046974294 9.219563e-39
-0.024816094 0.012987906 0.047311246 9.219563e-39
-0.024866391 0.012400548 0.047000144 9.219563e-39
-0.024789575 0.007764311 0.047475271 9.219563e-39
-0.024730934 0.0042251609 0.047733273 9.219563e-39
-0.024535725 0.0046196589 0.048588544 9.219563e-39
-0.024731304 0.003351263 0.047731649 9.219563e-39
-0.024582775 0.0062585301 0.048382405 9.219563e-39
-0.024762174 0.0089722816 0.047596402 9.219563e-39
-0.024692951 0.012990166 0.047899686 9.219563e-39
-0.024590677 0.0070092762 0.048347782 9.219563e-39
-0.024708577 0.011780575 0.047831234 9.219563e-39
-0.02451868 0.0040085311 0.048663218 9.219563e-39
-0.024744904 0.0093787359 0.047672074 9.219563e-39
-0.024538882 0.001436129 0.048574705 9.219563e-39
-0.02462621 0.0081808232 0.048192099 9.219563e-39
-0.02474599 0.010524129 0.04766731 9.219563e-39
-0.024720464 0.00029326673 0.047779147 9.219563e-39
-0.024707861 0.0071271444 0.047834363 9.219563e-39
-0.024617696 0.00066269422 0.048229404 9.219563e-39
-0.024660386 0.0027225099 0.048042368 9.219563e-39
-0.02467813 0.0037702995 0.047964625 9.219563e-39
-0.024755705 0.0066036615 0.047624748 9.219563e-39
-0.02477191 0.01632827 0.047553744 9.219563e-39
-0.024760505 0.0029005155 0.047603715 9.219563e-39
-0.024485854 0.0010277228 0.048807032 9.219563e-39
-0.024669399 0.0076405178 0.048002873 9.219563e-39
-0.024761563 0.017775813 0.047599085 9.219563e-39
-0.024716588 0.0079466905 0.04779613 9.219563e-39
-0.024744662 0.002306455 0.047673129 9.219563e-39
-0.024722364 0.015998943 0.047770821 9.219563e-39
-0.02461865 0.0031336914 0.048225228 9.219563e-39
-0.02466817 0.0085828705 0.048008263 9.219563e-39
-0.024756383 0.0097338092 0.047621775 9.219563e-39
-0.024682889 0.011136721 0.047943775 9.219563e-39
-0.024598563 0.0092670051 0.04831323 9.219563e-39
-0.024737224 0.011402816 0.047705717 9.219563e-39
-0.024517193 0.0031332008 0.048669733 9.219563e-39
-0.024520133 0.0025705774 0.048656855 9.219563e-39
-0.024612697 0.0044116438 0.048251301 9.219563e-39
-0.024632519 0.0065713851 0.048164461 9.219563e-39
-0.024607565 0.0020760351 0.048273787 9.219563e-39
-0.024688436 0.0062330398 0.047919471 9.219563e-39
-0.024776647 0.017122367 0.047532994 9.219563e-39
-0.024636848 0.0058131344 0.048145495 9.219563e-39
-0.024774445 0.0055463566 0.047542643 9.219563e-39
-0.024653392 0.0098668151 0.048073012 9.219563e-39
-0.024692247 0.0016377084 0.047902778 9.219563e-39
-0.024620006 0.0048355358 0.048219286 9.219563e-39
-0.024611618 0.0088640861 0.048256032 9.219563e-39
-0.024766937 0.0006187784 0.047575537 9.219563e-39
-0.024762934 0.0050779767 0.047593076 9.219563e-39
-0.024713026 0.014837501 0.047811735 9.219563e-39
-0.024715103 0.013350149 0.047802631 9.219563e-39
-0.02473378 0.0059350892 0.047720801 9.219563e-39
-0.024668243 0.010356676 0.048007939 9.219563e-39
-0.024549523 0.0036038493 0.048528086 9.219563e-39
-0.024734687 0.012658983 0.04771683 9.219563e-39
-0.024598636 0.001111926 0.04831291 9.219563e-39
-0.024477582 0.00027503751 0.048843283 9.219563e-39
-0.024601409 0.0054548616 0.048300762 9.219563e-39
-0.02468317 0.012167514 0.047942545 9.219563e-39
-0.025074136 0.011998237 0.045592323 9.219563e-39
-0.025118439 0.01565635 0.04513308 9.219563e-39
-0.02512908 0.018996095 0.045022771 9.219563e-39
-0.025075516 0.019445017 0.045578018 9.219563e-39
-0.025046455 0.0026271478 0.045879256 9.219563e-39
-0.025092656 0.014949668 0.045400333 9.219563e-39
-0.025168775 0.018551901 0.044611294 9.219563e-39
-0.025052141 0.016702622 0.045820318 9.219563e-39
-0.025045166 0.0067306161 0.045892619 9.219563e-39
-0.025159491 0.017973499 0.044707514 9.219563e-39
-0.025087107 0.0060723587 0.045457862 9.219563e-39
-0.025105679 0.017422112 0.045265336 9.219563e-39
-0.025094787 0.0104701 0.045378253 9.219563e-39
-0.025068255 0.014072051 0.04565328 9.219563e-39
-0.025116118 0.016631782 0.045157135 9.219563e-39
-0.025147887 0.014314434 0.044827819 9.219563e-39
-0.025069419 0.013708356 0.045641214 9.219563e-39
-0.025055803 0.0076450752 0.045782361 9.219563e-39
-0.025124416 0.019993613 0.045071121 9.219563e-39
-0.025047842 0.0011465586 0.045864884 9.219563e-39
-0.025081625 0.014428086 0.04551468 9.219563e-39
-0.025094137 0.0094345203 0.045384984 9.219563e-39
-0.025143791 0.017377485 0.044870269 9.219563e-39
-0.025101772 0.0085233059 0.045305844 9.219563e-39
-0.025082482 0.01640016 0.045505811 9.219563e-39
-0.025085235 0.016955527 0.045477264 9.219563e-39
-0.025098646 0.011713009 0.04533824 9.219563e-39
-0.025074823 0.015630497 0.0455852 9.219563e-39
-0.025132541 0.018417008 0.044986881 9.219563e-39
-0.02512693 0.011188844 0.045045041 9.219563e-39
-0.025060572 0.0044672131 0.045732923 9.219563e-39
-0.025060816 0.0034848307 0.045730386 9.219563e-39
-0.02508056 0.0056220177 0.045525737 9.219563e-39
-0.025078664 0.0073055574 0.045545388 9.219563e-39
-0.025045738 0.0050123334 0.045886692 9.219563e-39
-0.025048552 0.0089335339 0.04585753 9.219563e-39
-0.025150435 0.020237794 0.044801399 9.219563e-39
-0.025103962 0.0081169605 0.045283131 9.219563e-39
-0.025097638 0.020259781 0.045348689 9.219563e-39
-0.025086798 0.0067855376 0.045461066 9.219563e-39
-0.025046365 0.0177617 0.045880191 9.219563e-39
-0.025067708 0.018376801 0.045658953 9.219563e-39
-0.025082208 0.012374138 0.045508634 9.219563e-39
-0.025141798 0.015322424 0.044890922 9.219563e-39
-0.025139142 0.016966395 0.044918455 9.219563e-39
-0.02505119 0.015282778 0.045830175 9.219563e-39
-0.025088424 0.018893341 0.045444198 9.219563e-39
-0.025050389 0.018753452 0.045838479 9.219563e-39
-0.025053179 0.014839409 0.045809552 9.219563e-39
-0.025110457 0.014145327 0.045215812 9.219563e-39
-0.025138497 0.014804196 0.04492515 9.219563e-39
-0.025123302 0.013585312 0.04508267 9.219563e-39
-0.025051149 0.0099429935 0.045830607 9.219563e-39
-0.025064602 0.0030237029 0.045691151 9.219563e-39
-0.025176348 0.019701997 0.044532787 9.219563e-39
-0.025138952 0.012766406 0.044920426 9.219563e-39
-0.02517497 0.017625427 0.044547077 9.219563e-39
-0.025067456 0.011456226 0.045661554 9.219563e-39
-0.025121132 0.016068269 0.045105148 9.219563e-39
-0.025099823 0.012701281 0.045326035 9.219563e-39
-0.025061209 0.019852087 0.04572631 9.219563e-39
-0.025164569 0.016341642 0.044654891 9.219563e-39
-0.025060661 0.010725146 0.045732003 9.219563e-39
-0.025059463 0.013305462 0.045744415 9.219563e-39
-0.025045656 0.00043982745 0.045887548 9.219563e-39
-0.02514118 0.01942827 0.044897333 9.219563e-39
-0.025045255 0.017137548 0.045891687 9.219563e-39
-0.024942186 0.010399382 0.046531331 9.219563e-39
-0.024949778 0.0011752084 0.04648437 9.219563e-39
-0.024973346 0.0098630609 0.046338592 9.219563e-39
-0.025037456 0.012510181 0.045942046 9.219563e-39
-0.02495865 0.01199869 0.046429489 9.219563e-39
-0.024933986 0.0027310716 0.046582039 9.219563e-39
-0.02500239 0.010201354 0.046158943 9.219563e-39
-0.025010452 0.013687522 0.04610908 9.219563e-39
-0.024964264 0.0048546661 0.046394773 9.219563e-39
-0.024988346 0.0028973264 0.04624581 9.219563e-39
-0.025015466 0.0095176129 0.046078067 9.219563e-39
-0.02488503 0.0010583943 0.04688485 9.219563e-39
-0.025014155 0.003532964 0.04608617 9.219563e-39
-0.024941301 0.0067368117 0.046536803 9.219563e-39
-0.024828866 0.0020078649 0.047232244 9.219563e-39
-0.024953939 0.0077476129 0.046458628 9.219563e-39
-0.025030607 0.012951388 0.045984406 9.219563e-39
-0.024849376 0.00071905943 0.047105394 9.219563e-39
-0.024880165 0.0069639618 0.04691495 9.219563e-39
-0.025043443 0.0082707265 0.045905016 9.219563e-39
-0.024890231 0.0040773149 0.046852686 9.219563e-39
-0.024999198 0.014813844 0.046178684 9.219563e-39
-0.025010869 0.00077059574 0.046106502 9.219563e-39
-0.025029195 0.0071813213 0.045993146 9.219563e-39
-0.025007622 0.014431905 0.046126578 9.219563e-39
-0.024918143 0.0036421316 0.046680037 9.219563e-39
-0.024992885 0.0018822157 0.046217732 9.219563e-39
-0.025004718 0.0057124402 0.046144545 9.219563e-39
-0.02486781 0.0017045228 0.046991367 9.219563e-39
-0.025029818 0.0041090269 0.045989294 9.219563e-39
-0.025038751 0.0016270803 0.045934044 9.219563e-39
-0.025006212 0.015660476 0.046135299 9.219563e-39
-0.025002513 0.010644576 0.046158183 9.219563e-39
-0.02495081 0.0087270653 0.046477985 9.219563e-39
-0.024968339 0.0039385282 0.04636956 9.219563e-39
-0.024882136 0.0024922423 0.046902753 9.219563e-39
-0.024870833 0.0052852337 0.046972662 9.219563e-39
-0.02499216 0.015227905 0.046222214 9.219563e-39
-0.024866968 0.0029046941 0.046996567 9.219563e-39
-0.024995141 0.005338815 0.046203788 9.219563e-39
-0.025007753 0.0061607989 0.046125773 9.219563e-39
-0.024990492 0.011616502 0.04623254 9.219563e-39
-0.024817517 0.00028465287 0.04730244 9.219563e-39
-0.02492843 0.0095382798 0.046616409 9.219563e-39
-0.025029084 0.016318258 0.045993831 9.219563e-39
-0.02489453 0.0057889726 0.046826098 9.219563e-39
-0.024942577 0.0022113442 0.046528902 9.219563e-39
-0.024928553 0.0071754842 0.046615649 9.219563e-39
-0.024995916 0.0044286633 0.046198994 9.219563e-39
-0.025004368 0.011108888 0.046146702 9.219563e-39
-0.02495103 0.00071649812 0.046476625 9.219563e-39
-0.024939789 0.0062370156 0.046546157 9.219563e-39
-0.025218269 0.019557239 0.043689489 9.219563e-39
-0.025215302 0.014709858 0.043782033 9.219563e-39
-0.025207875 0.015702095 0.044013582 9.219563e-39
-0.025227962 0.01760626 0.043387242 9.219563e-39
-0.025206404 0.01247186 0.044059489 9.219563e-39
-0.025216846 0.016293539 0.043733876 9.219563e-39
-0.025224935 0.017100476 0.043481633 9.219563e-39
-0.025220975 0.019067992 0.043605112 9.219563e-39
-0.025200302 0.010959589 0.044249754 9.219563e-39
-0.025215909 0.012843708 0.043763079 9.219563e-39
-0.025216987 0.019959465 0.043729451 9.219563e-39
-0.025199872 0.019387791 0.044263218 9.219563e-39
-0.025243666 0.018150192 0.042897511 9.219563e-39
-0.025212107 0.011441142 0.043881629 9.219563e-39
-0.025199953 0.010340102 0.044260643 9.219563e-39
-0.025219662 0.015531691 0.043646049 9.219563e-39
-0.025204409 0.006816234 0.044121712 9.219563e-39
-0.025232676 0.013834281 0.04324019 9.219563e-39
-0.025203157 0.0047966996 0.044160757 9.219563e-39
-0.02521071 0.0086811418 0.043925177 9.219563e-39
-0.025202602 0.014724297 0.044178072 9.219563e-39
-0.025208315 0.0097877448 0.043999907 9.219563e-39
-0.025219001 0.011786382 0.043666687 9.219563e-39
-0.025223587 0.018098278 0.043523654 9.219563e-39
-0.025232356 0.015065793 0.043250225 9.219563e-39
-0.025208032 0.0092854882 0.044008713 9.219563e-39
-0.025221501 0.01671472 0.043588713 9.219563e-39
-0.025231063 0.015959438 0.043290492 9.219563e-39
-0.025205666 0.0079202699 0.044082493 9.219563e-39
-0.025229663 0.018751351 0.043334179 9.219563e-39
-0.02523143 0.018361405 0.0432791 9.219563e-39
-0.025198931 0.0016542758 0.044292547 9.219563e-39
-0.025208853 0.0053591318 0.043983098 9.219563e-39
-0.025212714 0.017331649 0.043862712 9.219563e-39
-0.0252121 0.011029573 0.043881848 9.219563e-39
-0.025199516 0.0027006485 0.0442743 9.219563e-39
-0.025213297 0.0082714483 0.043844528 9.219563e-39
-0.025230903 0.014512864 0.043295518 9.219563e-39
-0.025243431 0.018952034 0.042904846 9.219563e-39
-0.02523974 0.020214923 0.043019965 9.219563e-39
-0.025228737 0.019755181 0.043363046 9.219563e-39
-0.025217302 0.012265841 0.043719672 9.219563e-39
-0.025208957 0.015235093 0.043979883 9.219563e-39
-0.025200648 0.01356412 0.044238955 9.219563e-39
-0.025238536 0.019297563 0.043057475 9.219563e-39
-0.025200495 0.013070554 0.044243723 9.219563e-39
-0.025207365 0.016610388 0.044029497 9.219563e-39
-0.025200635 0.019974202 0.044239376 9.219563e-39
-0.025218571 0.010229753 0.043680105 9.219563e-39
-0.025222162 0.010744079 0.043568119 9.219563e-39
-0.025201079 0.017321372 0.044225566 9.219563e-39
-0.025207551 0.013923686 0.044023737 9.219563e-39
-0.025206681 0.017748043 0.044050854 9.219563e-39
-0.025242239 0.01765744 0.042941995 9.219563e-39
-0.025228027 0.012817592 0.043385189 9.219563e-39
-0.025218101 0.0095398109 0.043694731 9.219563e-39
-0.02520464 0.01901176 0.044114526 9.219563e-39
-0.025206937 0.011934254 0.044042885 9.219563e-39
-0.025215205 0.0070553059 0.043785028 9.219563e-39
-0.025206618 0.0064023789 0.044052843 9.219563e-39
-0.025238676 0.016730055 0.043053105 9.219563e-39
-0.025210017 0.018114278 0.043946791 9.219563e-39
-0.025213735 0.013569282 0.04383086 9.219563e-39
-0.025219843 0.014149874 0.04364039 9.219563e-39
-0.025209239 0.018663103 0.043971118 9.219563e-39
-0.02514613 0.0043094857 0.044846017 9.219563e-39
-0.025194678 0.012234655 0.04434276 9.219563e-39
-0.025172492 0.015068172 0.044572745 9.219563e-39
-0.025146561 0.0047063581 0.04484155 9.219563e-39
-0.025128052 0.010749 0.045033421 9.219563e-39
-0.025186408 0.0082720714 0.044428501 9.219563e-39
-0.02519734 0.0036937697 0.044315174 9.219563e-39
-0.025110809 0.0028505926 0.045212157 9.219563e-39
-0.025165038 0.0017252945 0.044650026 9.219563e-39
-0.025171783 0.011852893 0.044580098 9.219563e-39
-0.025165178 0.011334091 0.044648573 9.219563e-39
-0.025117649 0.0089562684 0.045141261 9.219563e-39
-0.025087072 0.0018313322 0.04545822 9.219563e-39
-0.02517396 0.015923724 0.044557538 9.219563e-39
-0.02515338 0.013171574 0.044770867 9.219563e-39
-0.025170291 0.0023178605 0.044595577 9.219563e-39
-0.025186038 0.012646718 0.04443235 9.219563e-39
-0.025102429 0.006415369 0.045299031 9.219563e-39
-0.025134671 0.0021666461 0.044964813 9.219563e-39
-0.025137143 0.01204872 0.044939186 9.219563e-39
-0.025121547 0.009778087 0.04510086 9.219563e-39
-0.025098275 0.0039531444 0.04534208 9.219563e-39
-0.025191676 0.0043146163 0.044373896 9.219563e-39
-0.025127858 0.0073360796 0.045035437 9.219563e-39
-0.025172127 0.0066852514 0.044576537 9.219563e-39
-0.025099469 0.0044043488 0.045329705 9.219563e-39
-0.025150197 0.010420754 0.044803873 9.219563e-39
-0.025192458 0.0061920318 0.044365779 9.219563e-39
-0.025131498 0.0035064674 0.044997703 9.219563e-39
-0.02515189 0.0087599671 0.044786327 9.219563e-39
-0.025150388 0.013862091 0.044801883 9.219563e-39
-0.025182666 0.016980959 0.044467282 9.219563e-39
-0.025160132 0.010893939 0.04470088 9.219563e-39
-0.025134625 0.0012381073 0.044965286 9.219563e-39
-0.025153717 0.0050707962 0.044767376 9.219563e-39
-0.025072625 0.0023519697 0.045607977 9.219563e-39
-0.025136936 0.0025457873 0.044941328 9.219563e-39
-0.025191324 0.015493448 0.044377539 9.219563e-39
-0.025195973 0.0057161236 0.044329345 9.219563e-39
-0.025179558 0.010041459 0.044499505 9.219563e-39
-0.025184279 0.014158943 0.044450566 9.219563e-39
-0.025191382 0.0090601025 0.044376943 9.219563e-39
-0.02517575 0.0033722378 0.044538978 9.219563e-39
-0.025134154 0.011572776 0.04497017 9.219563e-39
-0.025191223 0.0096125035 0.04437859 9.219563e-39
-0.025149006 0.0081686918 0.044816211 9.219563e-39
-0.025072414 0.00075161335 0.045610156 9.219563e-39
-0.025187474 0.0074354988 0.044417456 9.219563e-39
-0.025145473 0.0030178339 0.044852842 9.219563e-39
-0.025166711 0.0040024486 0.044632677 9.219563e-39
-0.025189046 0.0051640002 0.044401158 9.219563e-39
-0.025087152 0.0012646557 0.045457397 9.219563e-39
-0.025161441 0.0059209075 0.044687312 9.219563e-39
-0.025133867 0.00048977503 0.044973146 9.219563e-39
-0.025138792 0.0054829326 0.044922095 9.219563e-39
-0.02513526 0.0094426824 0.044958696 9.219563e-39
-0.025128562 0.007784192 0.045028124 9.219563e-39
-0.025189452 0.0010640896 0.044396948 9.219563e-39
-0.02524133 0.010274833 0.042429615 9.219563e-39
-0.025229398 0.016877189 0.042057548 9.219563e-39
-0.025249911 0.008034627 0.04269721 9.219563e-39
-0.02520578 0.017599264 0.041321032 9.219563e-39
-0.02522603 0.013981941 0.041952543 9.219563e-39
-0.025236914 0.017990246 0.042291932 9.219563e-39
-0.025230268 0.016415689 0.042084694 9.219563e-39
-0.025242189 0.01624704 0.042456448 9.219563e-39
-0.025231652 0.0099580362 0.042127844 9.219563e-39
-0.025246885 0.011391072 0.042602833 9.219563e-39
-0.025208438 0.019229565 0.041403946 9.219563e-39
-0.025212325 0.016141109 0.041525174 9.219563e-39
-0.02524936 0.0021692186 0.04268004 9.219563e-39
-0.025248213 0.010699921 0.042644247 9.219563e-39
-0.02524008 0.0050388533 0.042390667 9.219563e-39
-0.025244227 0.0073603611 0.04251999 9.219563e-39
-0.025221568 0.013041018 0.041813366 9.219563e-39
-0.025223225 0.015542137 0.041865092 9.219563e-39
-0.025246317 0.0097625358 0.042585161 9.219563e-39
-0.025237871 0.019665089 0.042321812 9.219563e-39
-0.025236174 0.013821432 0.042268857 9.219563e-39
-0.02524524 0.0034993074 0.042551581 9.219563e-39
-0.025241675 0.0065579806 0.042440373 9.219563e-39
-0.025221407 0.012679375 0.041808352 9.219563e-39
-0.025244525 0.016985212 0.042529237 9.219563e-39
-0.025232058 0.015199777 0.04214048 9.219563e-39
-0.025223685 0.014786031 0.041879416 9.219563e-39
-0.025215318 0.017390387 0.04161847 9.219563e-39
-0.025236141 0.018740378 0.04226784 9.219563e-39
-0.025223935 0.017780785 0.041887205 9.219563e-39
-0.025233524 0.0123623 0.042186242 9.219563e-39
-0.025229186 0.011667419 0.042050935 9.219563e-39
-0.025209008 0.017006064 0.041421711 9.219563e-39
-0.025249394 0.020052969 0.042681094 9.219563e-39
-0.025242871 0.014978456 0.042477671 9.219563e-39
-0.02522278 0.01823592 0.041851155 9.219563e-39
-0.025227448 0.019019445 0.041996714 9.219563e-39
-0.025213823 0.0187527 0.041571833 9.219563e-39
-0.025233492 0.0090198005 0.04218521 9.219563e-39
-0.025214974 0.015042815 0.041607738 9.219563e-39
-0.025213689 0.019607812 0.041567694 9.219563e-39
-0.025230868 0.011170397 0.042103361 9.219563e-39
-0.025241956 0.017346324 0.042449176 9.219563e-39
-0.025246635 0.013236762 0.042595066 9.219563e-39
-0.025227383 0.017316725 0.041994724 9.219563e-39
-0.025221216 0.012224357 0.041802388 9.219563e-39
-0.025205975 0.018144591 0.041327171 9.219563e-39
-0.025247101 0.0046357987 0.042609621 9.219563e-39
-0.025246896 0.012812634 0.042603195 9.219563e-39
-0.025224758 0.01600806 0.041912891 9.219563e-39
-0.025246989 0.014530174 0.04260613 9.219563e-39
-0.025230326 0.0095564788 0.042086456 9.219563e-39
-0.025244279 0.0038775974 0.042521589 9.219563e-39
-0.025236109 0.013079046 0.042266831 9.219563e-39
-0.025249058 0.0062607396 0.04267063 9.219563e-39
-0.025246056 0.019293504 0.042577021 9.219563e-39
-0.025228027 0.014432784 0.042014781 9.219563e-39
-0.025245083 0.015853005 0.042546701 9.219563e-39
-0.025214879 0.020068666 0.041604787 9.219563e-39
-0.02524841 0.011942538 0.042650435 9.219563e-39
-0.025249353 0.01550116 0.042679831 9.219563e-39
-0.025210524 0.01651727 0.041468978 9.219563e-39
-0.025226844 0.010666277 0.041977942 9.219563e-39
-0.025225721 0.013519563 0.041942883 9.219563e-39
-0.025245208 0.0057889577 0.042550571 9.219563e-39
-0.025216345 0.014384389 0.041650519 9.219563e-39
-0.025245138 0.0053606275 0.042851612 9.219563e-39
-0.025206871 0.0023821797 0.04404493 9.219563e-39
-0.025217526 0.0050778254 0.043712664 9.219563e-39
-0.025205888 0.0019572109 0.044075571 9.219563e-39
-0.025224948 0.0024198289 0.04348122 9.219563e-39
-0.025225969 0.00029053312 0.043449387 9.219563e-39
-0.025231158 0.0067627565 0.043287542 9.219563e-39
-0.025216512 0.0013806554 0.043744259 9.219563e-39
-0.025242092 0.0034267653 0.042946603 9.219563e-39
-0.025242705 0.0049359817 0.042927466 9.219563e-39
-0.02521733 0.007481067 0.043718766 9.219563e-39
-0.025222735 0.0032814632 0.043550208 9.219563e-39
-0.0252383 0.0059881792 0.043064836 9.219563e-39
-0.025249982 0.0042605302 0.042700533 9.219563e-39
-0.025248578 0.0085329954 0.042744365 9.219563e-39
-0.025240183 0.006432855 0.043006152 9.219563e-39
-0.025248621 0.018484065 0.042742997 9.219563e-39
-0.025219174 0.0063328627 0.043661274 9.219563e-39
-0.025215136 0.0058631576 0.0437872 9.219563e-39
-0.025240552 0.015685387 0.042994637 9.219563e-39
-0.025232861 0.012001973 0.04323449 9.219563e-39
-0.025232723 0.010114255 0.043238766 9.219563e-39
-0.025244979 0.0075992653 0.04285657 9.219563e-39
-0.025219593 0.0079584187 0.043648195 9.219563e-39
-0.025242031 0.0088976929 0.04294851 9.219563e-39
-0.025237139 0.0027670981 0.043101069 9.219563e-39
-0.025247842 0.014045145 0.042767316 9.219563e-39
-0.025240842 0.011075731 0.042985562 9.219563e-39
-0.025221353 0.0054381383 0.043593314 9.219563e-39
-0.025245516 0.012347569 0.042839859 9.219563e-39
-0.025211886 0.0044591436 0.043888532 9.219563e-39
-0.025237253 0.011603545 0.043097522 9.219563e-39
-0.025222292 0.00094624102 0.043564025 9.219563e-39
-0.025244728 0.00096511719 0.042864397 9.219563e-39
-0.025212659 0.0030693049 0.043864459 9.219563e-39
-0.025242738 0.017299669 0.042926442 9.219563e-39
-0.025244595 0.010052845 0.042868514 9.219563e-39
-0.02523781 0.0044070673 0.043080155 9.219563e-39
-0.025219319 0.0039526829 0.043656722 9.219563e-39
-0.025232313 0.0082358085 0.043251548 9.219563e-39
-0.025243185 0.0039273286 0.042912483 9.219563e-39
-0.025241779 0.013557626 0.042956345 9.219563e-39
-0.02523087 0.0051703211 0.043296579 9.219563e-39
-0.025249489 0.0027955566 0.042715944 9.219563e-39
-0.025245706 0.0071285623 0.042833943 9.219563e-39
-0.025245016 0.015119528 0.042855386 9.219563e-39
-0.025240252 0.0096794013 0.043003991 9.219563e-39
-0.025205342 0.00076930557 0.044092599 9.219563e-39
-0.025220182 0.0020268401 0.043629836 9.219563e-39
-0.025226383 0.0043490906 0.043436512 9.219563e-39
-0.025244573 0.00036949533 0.04286921 9.219563e-39
-0.025228396 0.0057687964 0.043373697 9.219563e-39
-0.025245413 0.016140571 0.042843029 9.219563e-39
-0.025240535 0.0024178806 0.042995166 9.219563e-39
-0.025210528 0.0036856506 0.043930881 9.219563e-39
-0.025236137 0.0013733644 0.043132298 9.219563e-39
-0.025237206 0.010611428 0.043098949 9.219563e-39
-0.025233556 0.0018762669 0.043212824 9.219563e-39
-0.025231075 0.0094136009 0.043290187 9.219563e-39
-0.025233632 0.007437815 0.043210424 9.219563e-39
-0.025244335 0.0092709018 0.042876653 9.219563e-39
-0.025247512 0.0016773141 0.042777546 9.219563e-39
-0.025228525 0.0089020152 0.043369692 9.219563e-39
-0.025239138 0.012676633 0.043038733 9.219563e-39
-0.025233617 0.013232676 0.043210912 9.219563e-39
-0.025231648 0.003646394 0.043272253 9.219563e-39
-0.025201656 0.0013413854 0.041192446 9.219563e-39
-0.025204973 0.0088394741 0.041295867 9.219563e-39
-0.025227897 0.003216882 0.042010739 9.219563e-39
-0.025228016 0.0083356583 0.04201445 9.219563e-39
-0.025205992 0.0066057644 0.041327689 9.219563e-39
-0.025199909 0.014525467 0.041137949 9.219563e-39
-0.025218673 0.0064822626 0.041723102 9.219563e-39
-0.025231849 0.0046995492 0.042134013 9.219563e-39
-0.025241576 0.0014775305 0.042437334 9.219563e-39
-0.025206517 0.010145351 0.04134405 9.219563e-39
-0.025232121 0.0011243004 0.042142455 9.219563e-39
-0.025217762 0.0036635029 0.041694693 9.219563e-39
-0.025198728 0.016176749 0.041101143 9.219563e-39
-0.025203107 0.010498063 0.041237701 9.219563e-39
-0.025210297 0.0030713698 0.041461907 9.219563e-39
-0.025204955 0.00046845456 0.041295312 9.219563e-39
-0.025212539 0.0015530344 0.041531857 9.219563e-39
-0.02520163 0.0052587893 0.04119166 9.219563e-39
-0.025200233 0.0027787413 0.041148052 9.219563e-39
-0.025219442 0.0012266606 0.041747086 9.219563e-39
-0.025214251 0.013799557 0.041585226 9.219563e-39
-0.02521028 0.012372908 0.041461397 9.219563e-39
-0.025198996 0.0069067944 0.041109517 9.219563e-39
-0.025223915 0.0079150228 0.041886561 9.219563e-39
-0.02521787 0.0096817799 0.041698076 9.219563e-39
-0.025223302 0.0039974852 0.041867442 9.219563e-39
-0.025232365 0.0023879588 0.042150076 9.219563e-39
-0.025202783 0.002195114 0.041227564 9.219563e-39
-0.025214303 0.0044185496 0.04158682 9.219563e-39
-0.02520325 0.0076168301 0.041242182 9.219563e-39
-0.025219219 0.0027013896 0.041740093 9.219563e-39
-0.025205078 0.015437366 0.041299123 9.219563e-39
-0.025216805 0.0050204014 0.04166485 9.219563e-39
-0.025207495 0.0061695427 0.041374549 9.219563e-39
-0.025232153 0.0060544149 0.042143479 9.219563e-39
-0.025227791 0.0020176317 0.042007416 9.219563e-39
-0.025205892 0.013422411 0.041324504 9.219563e-39
-0.025204182 0.0047539524 0.041271228 9.219563e-39
-0.025207376 0.00099170499 0.041370813 9.219563e-39
-0.025229625 0.0043217298 0.042064622 9.219563e-39
-0.02522872 0.0068187164 0.042036414 9.219563e-39
-0.025217623 0.0086221481 0.04169035 9.219563e-39
-0.025207898 0.013016875 0.041387085 9.219563e-39
-0.025231179 0.0055588731 0.042113088 9.219563e-39
-0.025201265 0.01404131 0.041180272 9.219563e-39
-0.025210923 0.010790301 0.041481428 9.219563e-39
-0.025218222 0.00064134347 0.041709024 9.219563e-39
-0.025217103 0.011123082 0.041674141 9.219563e-39
-0.025231371 0.0074276552 0.042119063 9.219563e-39
-0.025235614 0.0029158897 0.042251356 9.219563e-39
-0.025213873 0.0073497836 0.041573413 9.219563e-39
-0.025207492 0.012014812 0.041374438 9.219563e-39
-0.025200773 0.01672014 0.041164894 9.219563e-39
-0.025220301 0.010064017 0.041773856 9.219563e-39
-0.025218876 0.0056243399 0.041729413 9.219563e-39
-0.02519895 0.0057100686 0.04110802 9.219563e-39
-0.025236366 0.0005828517 0.042274866 9.219563e-39
-0.025208237 0.0080277631 0.041397654 9.219563e-39
-0.025201999 0.01852514 0.04120313 9.219563e-39
-0.025216442 0.0021364728 0.041653533 9.219563e-39
-0.025204165 0.0097038001 0.041270673 9.219563e-39
-0.025200518 0.011448743 0.041156951 9.219563e-39
-0.025117986 0.019651057 0.040262237 9.219563e-39
-0.025074359 0.018805899 0.039809991 9.219563e-39
-0.025082089 0.019875463 0.039890122 9.219563e-39
-0.025157196 0.015219149 0.040668685 9.219563e-39
-0.02510957 0.014243104 0.040174995 9.219563e-39
-0.025125107 0.015684754 0.040336046 9.219563e-39
-0.025164971 0.019684365 0.040749278 9.219563e-39
-0.025197893 0.0038067854 0.041090563 9.219563e-39
-0.025182743 0.0081705162 0.040933505 9.219563e-39
-0.025096996 0.014970462 0.040044639 9.219563e-39
-0.02517347 0.0054298285 0.040837377 9.219563e-39
-0.025146166 0.015971215 0.040554356 9.219563e-39
-0.025183415 0.013607765 0.040940475 9.219563e-39
-0.025176732 0.017376194 0.040871192 9.219563e-39
-0.02514575 0.018197874 0.040550038 9.219563e-39
-0.025086017 0.018347045 0.039930839 9.219563e-39
-0.025169199 0.01105787 0.040793117 9.219563e-39
-0.025085144 0.015989468 0.039921787 9.219563e-39
-0.025188522 0.011942368 0.040993422 9.219563e-39
-0.025163818 0.0059424038 0.040737335 9.219563e-39
-0.025166906 0.016376302 0.040769342 9.219563e-39
-0.025144745 0.0088457288 0.040539615 9.219563e-39
-0.025177339 0.013167278 0.040877484 9.219563e-39
-0.025179846 0.0033154932 0.040903486 9.219563e-39
-0.025177715 0.01876834 0.040881399 9.219563e-39
-0.025150822 0.011811368 0.040602617 9.219563e-39
-0.025170846 0.014192259 0.040810183 9.219563e-39
-0.025162136 0.010485331 0.040719904 9.219563e-39
-0.025187751 0.0018528593 0.040985428 9.219563e-39
-0.025119726 0.012750355 0.040280271 9.219563e-39
-0.025133744 0.01650575 0.040425573 9.219563e-39
-0.025176335 0.0095536113 0.040867086 9.219563e-39
-0.025140887 0.012388942 0.04049962 9.219563e-39
-0.025091873 0.017659808 0.039991558 9.219563e-39
-0.025137005 0.013222809 0.040459383 9.219563e-39
-0.025166497 0.0047182455 0.040765092 9.219563e-39
-0.025146633 0.017572638 0.040559199 9.219563e-39
-0.025104873 0.016745292 0.040126298 9.219563e-39
-0.025188575 0.009950419 0.040993951 9.219563e-39
-0.025192218 0.012452832 0.041031726 9.219563e-39
-0.025069656 0.017954187 0.039761238 9.219563e-39
-0.025166899 0.016865045 0.040769268 9.219563e-39
-0.025193959 0.015730232 0.041049778 9.219563e-39
-0.025139442 0.014502062 0.040484652 9.219563e-39
-0.025129037 0.018627875 0.040376786 9.219563e-39
-0.025181672 0.019224897 0.040922403 9.219563e-39
-0.025133435 0.017123627 0.040422384 9.219563e-39
-0.025180273 0.0085907178 0.040907905 9.219563e-39
-0.025181288 0.020076064 0.040918428 9.219563e-39
-0.025132427 0.010205981 0.040411927 9.219563e-39
-0.025191639 0.01500992 0.041025721 9.219563e-39
-0.025077442 0.017299719 0.03984195 9.219563e-39
-0.025142936 0.0098623373 0.040520858 9.219563e-39
-0.025111135 0.018941285 0.040191218 9.219563e-39
-0.025160545 0.0074232672 0.040703405 9.219563e-39
-0.02514988 0.013804931 0.040592849 9.219563e-39
-0.025148282 0.018987855 0.040576275 9.219563e-39
-0.025175521 0.017858932 0.040858645 9.219563e-39
-0.025180999 0.0064102132 0.040915422 9.219563e-39
-0.025070595 0.019359492 0.039770968 9.219563e-39
-0.025163796 0.009202715 0.040737104 9.219563e-39
-0.025090881 0.01163855 0.039981257 9.219563e-39
-0.025139324 0.0077585266 0.040483423 9.219563e-39
-0.025052983 0.001917474 0.039588407 9.219563e-39
-0.02505332 0.0075419154 0.039591908 9.219563e-39
-0.025107995 0.010529593 0.04015867 9.219563e-39
-0.025060289 0.016783943 0.039664142 9.219563e-39
-0.025111109 0.0022855054 0.040190943 9.219563e-39
-0.025099345 0.012050366 0.040069006 9.219563e-39
-0.025163237 0.00366878 0.0407313 9.219563e-39
-0.025071424 0.016388075 0.039779566 9.219563e-39
-0.025052305 0.017633613 0.039581385 9.219563e-39
-0.025128657 0.0016551918 0.040372845 9.219563e-39
-0.02508424 0.013386587 0.039912429 9.219563e-39
-0.025098143 0.0076793702 0.040056545 9.219563e-39
-0.025087964 0.0017413101 0.039951026 9.219563e-39
-0.025168918 0.0026466139 0.040790189 9.219563e-39
-0.025045266 0.019948754 0.039508417 9.219563e-39
-0.025116824 0.0029528092 0.04025019 9.219563e-39
-0.025053132 0.014919955 0.03958996 9.219563e-39
-0.025052913 0.0013246493 0.039587677 9.219563e-39
-0.025104806 0.0082541881 0.040125605 9.219563e-39
-0.025113659 0.0034145226 0.040217388 9.219563e-39
-0.02504866 0.0082903905 0.039543603 9.219563e-39
-0.025135318 0.0012490994 0.040441889 9.219563e-39
-0.025134955 0.0071687703 0.040438138 9.219563e-39
-0.025044959 0.01207217 0.039505236 9.219563e-39
-0.025114384 0.0086553013 0.040224887 9.219563e-39
-0.025095992 0.0042062253 0.040034238 9.219563e-39
-0.025060236 0.011218904 0.039663602 9.219563e-39
-0.025074402 0.0089006359 0.039810434 9.219563e-39
-0.025107741 0.0092761395 0.040156033 9.219563e-39
-0.025104554 0.011219776 0.040123008 9.219563e-39
-0.025153961 0.0023001577 0.040635154 9.219563e-39
-0.025069294 0.012768944 0.039757498 9.219563e-39
-0.025081636 0.0065743458 0.039885439 9.219563e-39
-0.025131296 0.0005753506 0.040400203 9.219563e-39
-0.025126407 0.0047602337 0.040349532 9.219563e-39
-0.025134603 0.0043024942 0.040434487 9.219563e-39
-0.025097976 0.00028550095 0.040054809 9.219563e-39
-0.025145119 0.0066360822 0.040543489 9.219563e-39
-0.025079491 0.015387154 0.039863184 9.219563e-39
-0.025052942 0.0096623767 0.039587993 9.219563e-39
-0.025116896 0.0051529803 0.040250946 9.219563e-39
-0.025090402 0.0062082577 0.039976299 9.219563e-39
-0.025093522 0.001269813 0.040008646 9.219563e-39
-0.025075598 0.014188107 0.039822843 9.219563e-39
-0.025060123 0.00062722963 0.039662421 9.219563e-39
-0.025071008 0.013751872 0.039775252 9.219563e-39
-0.025084231 0.01024707 0.039912321 9.219563e-39
-0.025049007 0.0062177884 0.039547198 9.219563e-39
-0.025057416 0.0092261117 0.039634373 9.219563e-39
-0.025099996 0.0069323187 0.040075764 9.219563e-39
-0.025053319 0.0068569165 0.039591886 9.219563e-39
-0.025085872 0.0045747021 0.039929338 9.219563e-39
-0.025063742 0.010833147 0.039699946 9.219563e-39
-0.025060626 0.0052225296 0.039667632 9.219563e-39
-0.025167402 0.0040489305 0.040774487 9.219563e-39
-0.02506832 0.0079593752 0.039747395 9.219563e-39
-0.025121678 0.0059794607 0.040300507 9.219563e-39
-0.025079783 0.005596844 0.039866216 9.219563e-39
-0.02510759 0.0038123347 0.040154468 9.219563e-39
-0.025056677 0.0027196682 0.039626703 9.219563e-39
-0.025169671 0.0014212057 0.040797994 9.219563e-39
-0.025092315 0.0096750138 0.039996132 9.219563e-39
-0.025047334 0.018397858 0.039529845 9.219563e-39
-0.025074674 0.0030999391 0.039813269 9.219563e-39
-0.025035219 0.017158488 0.039444122 9.219563e-39
-0.025007838 0.0049722008 0.039274752 9.219563e-39
-0.024900794 0.0052646054 0.038612656 9.219563e-39
-0.024999775 0.0055958461 0.039224882 9.219563e-39
-0.024965184 0.013802159 0.039010923 9.219563e-39
-0.024974508 0.0030540102 0.039068606 9.219563e-39
-0.024924161 0.0057596918 0.038757186 9.219563e-39
-0.024884861 0.0018369525 0.0385141 9.219563e-39
-0.024995822 0.0099079991 0.03920044 9.219563e-39
-0.025004147 0.0087436931 0.03925192 9.219563e-39
-0.024998572 0.0064752824 0.039217442 9.219563e-39
-0.024978982 0.014217295 0.03909627 9.219563e-39
-0.024880419 0.0010999888 0.03848663 9.219563e-39
-0.024992513 0.013312817 0.03917997 9.219563e-39
-0.024980841 0.0014496514 0.039107773 9.219563e-39
-0.025038412 0.0045717121 0.039463867 9.219563e-39
-0.025014365 0.016412957 0.039315123 9.219563e-39
-0.024893949 0.0023574475 0.038570307 9.219563e-39
-0.024907989 0.00031090924 0.038657162 9.219563e-39
-0.024963159 0.0010146577 0.038998406 9.219563e-39
-0.024828238 0.0030975796 0.038163867 9.219563e-39
-0.024811041 0.0014895785 0.038057499 9.219563e-39
-0.024990594 0.015131907 0.039168093 9.219563e-39
-0.024982454 0.00057197228 0.039117746 9.219563e-39
-0.024889581 0.0048968024 0.038543295 9.219563e-39
-0.024979161 0.010534997 0.039097372 9.219563e-39
-0.025027387 0.014588847 0.039395675 9.219563e-39
-0.024914883 0.0013920519 0.038699798 9.219563e-39
-0.024936626 0.0099704387 0.038834289 9.219563e-39
-0.024862548 0.0058498443 0.038376093 9.219563e-39
-0.02481506 0.0011253563 0.038082361 9.219563e-39
-0.025016079 0.0022004719 0.039325725 9.219563e-39
-0.025027849 0.011581234 0.039398529 9.219563e-39
-0.024980681 0.012899731 0.039106779 9.219563e-39
-0.02504403 0.003323379 0.039498609 9.219563e-39
-0.024836017 0.0027247649 0.038211979 9.219563e-39
-0.025005748 0.0059771161 0.039261825 9.219563e-39
-0.024932003 0.0080900406 0.03880569 9.219563e-39
-0.025014205 0.0039775087 0.039314132 9.219563e-39
-0.024988573 0.01232007 0.039155595 9.219563e-39
-0.024994973 0.0035855784 0.039195176 9.219563e-39
-0.024862763 0.003401712 0.038377412 9.219563e-39
-0.024921887 0.01034396 0.038743116 9.219563e-39
-0.025016477 0.0078962417 0.039328199 9.219563e-39
-0.024926921 0.0087060994 0.038774259 9.219563e-39
-0.024816412 0.00030342769 0.038090724 9.219563e-39
-0.024933225 0.0065988917 0.038813248 9.219563e-39
-0.02501327 0.015519925 0.039308358 9.219563e-39
-0.025023967 0.010260905 0.039374515 9.219563e-39
-0.024898093 0.002887453 0.038595945 9.219563e-39
-0.024961658 0.0095120762 0.038989116 9.219563e-39
-0.025021782 0.011023758 0.039361008 9.219563e-39
-0.024963541 0.0052175508 0.039000757 9.219563e-39
-0.024954908 0.011192751 0.038947362 9.219563e-39
-0.024953946 0.0077209673 0.038941421 9.219563e-39
-0.024884982 0.0069464082 0.038514853 9.219563e-39
-0.025031289 0.013651314 0.039419804 9.219563e-39
-0.024916379 0.0073823789 0.038709044 9.219563e-39
-0.024935275 0.0040124026 0.038825929 9.219563e-39
-0.025031844 0.015895763 0.039423238 9.219563e-39
-0.024999615 0.0091470685 0.039223891 9.219563e-39
-0.024960754 0.0024513043 0.038983528 9.219563e-39
-0.024973858 0.011962705 0.039064575 9.219563e-39
-0.024931332 0.0044247382 0.03880154 9.219563e-39
-0.024946015 0.006970848 0.038892359 9.219563e-39
-0.024855528 0.015611265 0.038332667 9.219563e-39
-0.024899079 0.016780842 0.038602043 9.219563e-39
-0.024921309 0.013028045 0.038739551 9.219563e-39
-0.024860833 0.0062379595 0.038365476 9.219563e-39
-0.024925642 0.018729713 0.038766347 9.219563e-39
-0.024885837 0.019494982 0.038520139 9.219563e-39
-0.024805991 0.0018856383 0.038026258 9.219563e-39
-0.024927912 0.017750507 0.038780384 9.219563e-39
-0.024984304 0.018397946 0.039129194 9.219563e-39
-0.024793591 0.0043386179 0.037949562 9.219563e-39
-0.024810567 0.0050046486 0.038054567 9.219563e-39
-0.024809591 0.0096552903 0.038048539 9.219563e-39
-0.02489049 0.0092054205 0.038548924 9.219563e-39
-0.024914354 0.015844753 0.03869652 9.219563e-39
-0.024790546 0.0069738864 0.037930731 9.219563e-39
-0.024939541 0.019635916 0.038852312 9.219563e-39
-0.024859438 0.0073321369 0.038356848 9.219563e-39
-0.024986677 0.017841125 0.039143864 9.219563e-39
-0.024794167 0.013282338 0.037953127 9.219563e-39
-0.024804225 0.013737491 0.038015336 9.219563e-39
-0.024919977 0.018269019 0.038731307 9.219563e-39
-0.024884377 0.0083393268 0.038511105 9.219563e-39
-0.024850389 0.019009629 0.038300879 9.219563e-39
-0.024957554 0.014769525 0.038963731 9.219563e-39
-0.024897242 0.020182243 0.038590677 9.219563e-39
-0.02490926 0.014218207 0.038665015 9.219563e-39
-0.024826862 0.016772067 0.038155362 9.219563e-39
-0.02479241 0.0089319209 0.037942261 9.219563e-39
-0.024977205 0.016934952 0.039085284 9.219563e-39
-0.024825372 0.003825916 0.038146146 9.219563e-39
-0.02485501 0.008670887 0.038329463 9.219563e-39
-0.024858683 0.014525495 0.038352188 9.219563e-39
-0.024823008 0.011285737 0.038131524 9.219563e-39
-0.024840575 0.0066938545 0.038240179 9.219563e-39
-0.024908809 0.015353838 0.038662229 9.219563e-39
-0.024821518 0.016255196 0.0381223 9.219563e-39
-0.024869632 0.018516384 0.038419899 9.219563e-39
-0.024801331 0.017931458 0.037997443 9.219563e-39
-0.02487112 0.017949445 0.038429111 9.219563e-39
-0.024822701 0.019829622 0.038129617 9.219563e-39
-0.024801647 0.017423226 0.037999395 9.219563e-39
-0.024952725 0.019119469 0.038933855 9.219563e-39
-0.024849756 0.014016414 0.038296964 9.219563e-39
-0.024798732 0.01848725 0.037981372 9.219563e-39
-0.02485048 0.014885488 0.038301438 9.219563e-39
-0.024830827 0.0046392833 0.038179889 9.219563e-39
-0.024916518 0.011690263 0.038709909 9.219563e-39
-0.024840305 0.012708319 0.038238499 9.219563e-39
-0.024878599 0.013625094 0.038475364 9.219563e-39
-0.024856705 0.012044396 0.038339946 9.219563e-39
-0.024853816 0.013287123 0.03832208 9.219563e-39
-0.024956893 0.016137971 0.038959641 9.219563e-39
-0.02479695 0.019309299 0.037970334 9.219563e-39
