# .PCD v0.7 - Point Cloud Data file format
VERSION 0.7
FIELDS x y z rgb
SIZE 4 4 4 4
TYPE F F F F
COUNT 1 1 1 1
WIDTH 916
HEIGHT 1
VIEWPOINT 0 0 0 1 0 0 0
POINTS 916
DATA ascii
-0.013640219 0.00027300001 0.026925389 9.219563e-39
-0.017173545 0.00027300001 0.027084619 9.219563e-39
-0.023743022 0.00027300001 0.027569011 9.219563e-39
-0.023503272 0.00027300001 0.028193142 9.219563e-39
-0.025077539 0.00027300001 0.027428288 9.219563e-39
-0.019213101 0.00027300001 0.027517352 9.219563e-39
-0.020192968 0.00027300001 0.027342964 9.219563e-39
-0.0099655529 0.00027300001 0.026692837 9.219563e-39
-0.011990246 0.00027300001 0.026758332 9.219563e-39
-0.016657859 0.00027300001 0.02723784 9.219563e-39
-0.014327691 0.00027300001 0.026938643 9.219563e-39
-0.022011658 0.00027300001 0.027715158 9.219563e-39
-0.013240334 0.00027300001 0.027005866 9.219563e-39
-0.024801148 0.00027300001 0.028090201 9.219563e-39
-0.02429246 0.00027300001 0.028186314 9.219563e-39
-0.01113816 0.00027300001 0.027076572 9.219563e-39
-0.020680478 0.00027300001 0.027627118 9.219563e-39
-0.01972108 0.00027300001 0.028017454 9.219563e-39
-0.0091879359 0.00027300001 0.026717801 9.219563e-39
-0.024081113 0.00027300001 0.028544378 9.219563e-39
-0.015405742 0.00027300001 0.027054027 9.219563e-39
-0.025003294 0.00027300001 0.028538004 9.219563e-39
-0.015017165 0.00027300001 0.026929285 9.219563e-39
-0.016047822 0.00027300001 0.027452402 9.219563e-39
-0.012377651 0.00027300001 0.028295506 9.219563e-39
-0.020815875 0.00027300001 0.029660061 9.219563e-39
-0.009162901 0.00027300001 0.027201429 9.219563e-39
-0.016894424 0.00027300001 0.028892472 9.219563e-39
-0.018796882 0.00027300001 0.029434085 9.219563e-39
-0.017535046 0.00027300001 0.029205929 9.219563e-39
-0.010896237 0.00027300001 0.02786139 9.219563e-39
-0.0085981339 0.00027300001 0.027667794 9.219563e-39
-0.018379146 0.00027300001 0.029088937 9.219563e-39
-0.014795568 0.00027300001 0.028383281 9.219563e-39
-0.013282732 0.00027300001 0.02804986 9.219563e-39
-0.016101986 0.00027300001 0.02874101 9.219563e-39
-0.014386099 0.00027300001 0.028302573 9.219563e-39
-0.010458721 0.00027300001 0.027936853 9.219563e-39
-0.019234976 0.00027300001 0.029495809 9.219563e-39
-0.016473239 0.00027300001 0.028708268 9.219563e-39
-0.010056744 0.00027300001 0.027868751 9.219563e-39
-0.012568018 0.00027300001 0.027904741 9.219563e-39
-0.015169989 0.00027300001 0.028510019 9.219563e-39
-0.0096135829 0.00027300001 0.027628962 9.219563e-39
-0.011655591 0.00027300001 0.028086513 9.219563e-39
-0.014210427 0.00027300001 0.028631873 9.219563e-39
-0.0069337771 0.00027300001 0.027046308 9.219563e-39
-0.011613906 0.00027300001 0.027728353 9.219563e-39
-0.0073899287 0.00027300001 0.027240597 9.219563e-39
-0.013490935 0.00027300001 0.028509393 9.219563e-39
-0.012156285 0.00027300001 0.027956638 9.219563e-39
-0.015726916 0.00027300001 0.028780263 9.219563e-39
-0.020313768 0.00027300001 0.029533755 9.219563e-39
-0.0079907309 0.00027300001 0.026924841 9.219563e-39
-0.010017776 0.00027300001 0.027250841 9.219563e-39
-0.0085032005 0.00027300001 0.027145401 9.219563e-39
-0.011235015 0.00027300001 0.027570199 9.219563e-39
-0.0079505024 0.00027300001 0.027313847 9.219563e-39
-0.0089998245 0.00027300001 0.027538989 9.219563e-39
-0.0014135396 0.00027300001 0.034078322 9.219563e-39
-0.0022661053 0.00027300001 0.045437094 9.219563e-39
-0.0017963857 0.00027300001 0.037054207 9.219563e-39
-0.0024266033 0.00027300001 0.04750656 9.219563e-39
-0.00090047461 0.00027300001 0.034395587 9.219563e-39
-0.0013277711 0.00027300001 0.038072255 9.219563e-39
-0.0015965989 0.00027300001 0.035888538 9.219563e-39
-0.0020511765 0.00027300001 0.042801749 9.219563e-39
-0.0021027913 0.00027300001 0.042031746 9.219563e-39
-0.0024910455 0.00027300001 0.048446652 9.219563e-39
-0.0015906006 0.00027300001 0.033485066 9.219563e-39
-0.0018586379 0.00027300001 0.041092113 9.219563e-39
-0.0010034163 0.00027300001 0.033118296 9.219563e-39
-0.0013994724 0.00027300001 0.037331421 9.219563e-39
-0.0015039046 0.00027300001 0.038385477 9.219563e-39
-0.0020427599 0.00027300001 0.043231651 9.219563e-39
-0.00151109 0.00027300001 0.032674756 9.219563e-39
-0.0017731193 0.00027300001 0.042402737 9.219563e-39
-0.0023547427 0.00027300001 0.046790544 9.219563e-39
-0.0016066731 0.00027300001 0.038759671 9.219563e-39
-0.0017656715 0.00027300001 0.040002622 9.219563e-39
-0.0018489384 0.00027300001 0.040685058 9.219563e-39
-0.0018832264 0.00027300001 0.039502587 9.219563e-39
-0.0011057062 0.00027300001 0.032743379 9.219563e-39
-0.0017814179 0.00027300001 0.041772179 9.219563e-39
-0.00127695 0.00027300001 0.036177266 9.219563e-39
-0.0012896329 0.00027300001 0.033681527 9.219563e-39
-0.0010914084 0.00027300001 0.035818949 9.219563e-39
-0.0014785809 0.00027300001 0.035397366 9.219563e-39
-0.0010018217 0.00027300001 0.035397977 9.219563e-39
-0.0013194116 0.00027300001 0.034573179 9.219563e-39
-0.0013307462 0.00027300001 0.036849827 9.219563e-39
-0.0017494127 0.00027300001 0.036303997 9.219563e-39
-0.0012108386 0.00027300001 0.035094738 9.219563e-39
-0.0019466314 0.00027300001 0.05029751 9.219563e-39
-0.00086548377 0.00027300001 0.037279449 9.219563e-39
-0.00096196664 0.00027300001 0.044368234 9.219563e-39
-0.0013475441 0.00027300001 0.041196398 9.219563e-39
-0.0013182139 0.00027300001 0.044629313 9.219563e-39
-0.0013881758 0.00027300001 0.050070364 9.219563e-39
-0.0023122809 0.00027300001 0.048775095 9.219563e-39
-0.001593446 0.00027300001 0.04537636 9.219563e-39
-0.0011152492 0.00027300001 0.045733232 9.219563e-39
-0.0010341941 0.00027300001 0.038373575 9.219563e-39
-0.00091424084 0.00027300001 0.039444242 9.219563e-39
-0.00088953786 0.00027300001 0.034824606 9.219563e-39
-0.0015311255 0.00027300001 0.04206565 9.219563e-39
-0.0021313091 0.00027300001 0.048286069 9.219563e-39
-0.0016532916 0.00027300001 0.046488415 9.219563e-39
-0.0016094375 0.00027300001 0.043543115 9.219563e-39
-0.0016681212 0.00027300001 0.042891618 9.219563e-39
-0.0021931482 0.00027300001 0.049839918 9.219563e-39
-0.0021460061 0.00027300001 0.046446454 9.219563e-39
-0.0012360227 0.00027300001 0.043628652 9.219563e-39
-0.000975426 0.00027300001 0.040153902 9.219563e-39
-0.0013468683 0.00027300001 0.048780348 9.219563e-39
-0.00095058628 0.00027300001 0.044987641 9.219563e-39
-0.0017639394 0.00027300001 0.046882134 9.219563e-39
-0.0011489094 0.00027300001 0.037700616 9.219563e-39
-0.0011381196 0.00027300001 0.04945815 9.219563e-39
-0.0017043983 0.00027300001 0.044953879 9.219563e-39
-0.0017713441 0.00027300001 0.048433091 9.219563e-39
-0.0020193316 0.00027300001 0.04598413 9.219563e-39
-0.0013358446 0.00027300001 0.04723395 9.219563e-39
-0.0013580522 0.00027300001 0.042517494 9.219563e-39
-0.0016024362 0.00027300001 0.047913324 9.219563e-39
-0.0011247342 0.00027300001 0.046241868 9.219563e-39
-0.0021815326 0.00027300001 0.047873992 9.219563e-39
-0.0010429886 0.00027300001 0.042023096 9.219563e-39
-0.00096385594 0.00027300001 0.041287556 9.219563e-39
-0.0014214364 0.00027300001 0.039558265 9.219563e-39
-0.00069516152 0.00027300001 0.032834955 9.219563e-39
-0.0023824994 0.00027300001 0.050180551 9.219563e-39
-0.00097753794 0.00027300001 0.03643737 9.219563e-39
-0.0023403417 0.00027300001 0.049182605 9.219563e-39
-0.0012204404 0.00027300001 0.045320228 9.219563e-39
-0.0016924533 0.00027300001 0.049082648 9.219563e-39
-0.0013694593 0.00027300001 0.040491614 9.219563e-39
-0.00096997968 0.00027300001 0.036897976 9.219563e-39
-0.001181922 0.00027300001 0.0387422 9.219563e-39
-0.0010091525 0.00027300001 0.047096808 9.219563e-39
-0.0012886734 0.00027300001 0.044017743 9.219563e-39
-0.0011704578 0.00027300001 0.043096147 9.219563e-39
-0.0019339842 0.00027300001 0.047269102 9.219563e-39
-0.0012584744 0.00027300001 0.04170252 9.219563e-39
-0.0019271505 0.00027300001 0.044593316 9.219563e-39
-0.0016959195 0.00027300001 0.044169664 9.219563e-39
-0.0017951989 0.00027300001 0.049519297 9.219563e-39
-0.00099116215 0.00027300001 0.040745534 9.219563e-39
-0.0012101781 0.00027300001 0.048234139 9.219563e-39
-0.0016138784 0.00027300001 0.046048503 9.219563e-39
-0.024103703 0.00027300001 0.026588637 9.219563e-39
-0.014757899 0.00027300001 0.026150547 9.219563e-39
-0.011098675 0.00027300001 0.025731299 9.219563e-39
-0.021687385 0.00027300001 0.026788078 9.219563e-39
-0.015389537 0.00027300001 0.026040826 9.219563e-39
-0.024713721 0.00027300001 0.027000699 9.219563e-39
-0.020891538 0.00027300001 0.026649576 9.219563e-39
-0.022092035 0.00027300001 0.02613778 9.219563e-39
-0.017267192 0.00027300001 0.026250727 9.219563e-39
-0.021800946 0.00027300001 0.026368123 9.219563e-39
-0.023010917 0.00027300001 0.026036743 9.219563e-39
-0.019892499 0.00027300001 0.025893144 9.219563e-39
-0.019683225 0.00027300001 0.026338167 9.219563e-39
-0.01437748 0.00027300001 0.026180085 9.219563e-39
-0.020961981 0.00027300001 0.025831968 9.219563e-39
-0.023814244 0.00027300001 0.027177837 9.219563e-39
-0.019762635 0.00027300001 0.026771672 9.219563e-39
-0.023554763 0.00027300001 0.026730381 9.219563e-39
-0.013273504 0.00027300001 0.026014112 9.219563e-39
-0.012041163 0.00027300001 0.02584653 9.219563e-39
-0.017936666 0.00027300001 0.026641127 9.219563e-39
-0.018361874 0.00027300001 0.026496127 9.219563e-39
-0.022339126 0.00027300001 0.026488949 9.219563e-39
-0.022583978 0.00027300001 0.026216693 9.219563e-39
-0.013869334 0.00027300001 0.025969293 9.219563e-39
-0.011470598 0.00027300001 0.025894109 9.219563e-39
-0.019340064 0.00027300001 0.026450817 9.219563e-39
-0.023249384 0.00027300001 0.025734548 9.219563e-39
-0.022542844 0.00027300001 0.025770918 9.219563e-39
-0.010479062 0.00027300001 0.02596904 9.219563e-39
-0.025053026 0.00027300001 0.02680622 9.219563e-39
-0.01639265 0.00027300001 0.025811445 9.219563e-39
-0.016757192 0.00027300001 0.026014723 9.219563e-39
-0.015675426 0.00027300001 0.026399393 9.219563e-39
-0.023689639 0.00027300001 0.026125465 9.219563e-39
-0.022602668 0.00027300001 0.026800919 9.219563e-39
-0.017753419 0.00027300001 0.025891323 9.219563e-39
-0.015814684 0.00027300001 0.026011121 9.219563e-39
-0.021358762 0.00027300001 0.026489798 9.219563e-39
-0.020186547 0.00027300001 0.026564978 9.219563e-39
-0.024328038 0.00027300001 0.026297972 9.219563e-39
-0.022904668 0.00027300001 0.027054977 9.219563e-39
-0.023204688 0.00027300001 0.026443176 9.219563e-39
-0.012522966 0.00027300001 0.025884792 9.219563e-39
-0.020600947 0.00027300001 0.026083119 9.219563e-39
-0.021819163 0.00027300001 0.025852188 9.219563e-39
-0.022195486 0.00027300001 0.026958924 9.219563e-39
-0.0189595 0.00027300001 0.026306812 9.219563e-39
-0.018495712 0.00027300001 0.026148845 9.219563e-39
-0.024703141 0.00027300001 0.026451491 9.219563e-39
-0.024459651 0.00027300001 0.025757879 9.219563e-39
-0.01725007 0.00027300001 0.025758844 9.219563e-39
-0.021376129 0.00027300001 0.025690798 9.219563e-39
-0.015447972 0.00027300001 0.025138021 9.219563e-39
-0.020258738 0.00027300001 0.025402758 9.219563e-39
-0.024902819 0.00027300001 0.025163051 9.219563e-39
-0.020418551 0.00027300001 0.025011733 9.219563e-39
-0.018731749 0.00027300001 0.02553137 9.219563e-39
-0.020689791 0.00027300001 0.025514487 9.219563e-39
-0.024695003 0.00027300001 0.024709363 9.219563e-39
-0.022700636 0.00027300001 0.025438093 9.219563e-39
-0.014404036 0.00027300001 0.025542423 9.219563e-39
-0.0094085997 0.00027300001 0.025551263 9.219563e-39
-0.017843479 0.00027300001 0.024851613 9.219563e-39
-0.014956108 0.00027300001 0.025062509 9.219563e-39
-0.017952686 0.00027300001 0.025316451 9.219563e-39
-0.022938654 0.00027300001 0.024348393 9.219563e-39
-0.018801434 0.00027300001 0.025113754 9.219563e-39
-0.024739245 0.00027300001 0.02433762 9.219563e-39
-0.011695391 0.00027300001 0.025446482 9.219563e-39
-0.0082299486 0.00027300001 0.025689699 9.219563e-39
-0.015134247 0.00027300001 0.025418714 9.219563e-39
-0.016323511 0.00027300001 0.025389332 9.219563e-39
-0.023825511 0.00027300001 0.024766821 9.219563e-39
-0.017367216 0.00027300001 0.024832506 9.219563e-39
-0.0243176 0.00027300001 0.025086917 9.219563e-39
-0.023733683 0.00027300001 0.025625471 9.219563e-39
-0.0097905621 0.00027300001 0.025613993 9.219563e-39
-0.021005597 0.00027300001 0.024875488 9.219563e-39
-0.023167713 0.00027300001 0.024759799 9.219563e-39
-0.02459023 0.00027300001 0.025349349 9.219563e-39
-0.021720398 0.00027300001 0.02522783 9.219563e-39
-0.018499862 0.00027300001 0.024899133 9.219563e-39
-0.012624982 0.00027300001 0.025497463 9.219563e-39
-0.017481877 0.00027300001 0.025334463 9.219563e-39
-0.018975522 0.00027300001 0.024657656 9.219563e-39
-0.010919401 0.00027300001 0.025382429 9.219563e-39
-0.023275172 0.00027300001 0.025212605 9.219563e-39
-0.023705915 0.00027300001 0.025268987 9.219563e-39
-0.014002167 0.00027300001 0.025404312 9.219563e-39
-0.019145446 0.00027300001 0.025620151 9.219563e-39
-0.020738663 0.00027300001 0.024612606 9.219563e-39
-0.024170553 0.00027300001 0.025504809 9.219563e-39
-0.019740077 0.00027300001 0.024907172 9.219563e-39
-0.02266892 0.00027300001 0.024667997 9.219563e-39
-0.012159249 0.00027300001 0.025439519 9.219563e-39
-0.016727582 0.00027300001 0.025247335 9.219563e-39
-0.022853669 0.00027300001 0.024994314 9.219563e-39
-0.0086266026 0.00027300001 0.02556191 9.219563e-39
-0.014561092 0.00027300001 0.025037978 9.219563e-39
-0.013346395 0.00027300001 0.0256157 9.219563e-39
-0.018318623 0.00027300001 0.02539039 9.219563e-39
-0.013444145 0.00027300001 0.025215276 9.219563e-39
-0.02219988 0.00027300001 0.025032014 9.219563e-39
-0.019760715 0.00027300001 0.025320467 9.219563e-39
-0.023448257 0.00027300001 0.024495766 9.219563e-39
-0.024177993 0.00027300001 0.024504878 9.219563e-39
-0.015681237 0.00027300001 0.025428016 9.219563e-39
-0.022201613 0.00027300001 0.025586665 9.219563e-39
-0.021194078 0.00027300001 0.025292113 9.219563e-39
-0.02521985 0.00027300001 0.024867114 2.3418052e-38
-0.010346927 0.00027300001 0.025591135 9.219563e-39
-0.021269737 0.00027300001 0.02461262 9.219563e-39
-0.018296117 0.00027300001 0.026905585 9.219563e-39
-0.01016314 0.00027300001 0.026182409 9.219563e-39
-0.010777504 0.00027300001 0.026391335 9.219563e-39
-0.019031884 0.00027300001 0.02699038 9.219563e-39
-0.021175662 0.00027300001 0.027080305 9.219563e-39
-0.0077358522 0.00027300001 0.026350379 9.219563e-39
-0.016278634 0.00027300001 0.026571162 9.219563e-39
-0.017128184 0.00027300001 0.02672407 9.219563e-39
-0.011238505 0.00027300001 0.026454642 9.219563e-39
-0.013013278 0.00027300001 0.026598461 9.219563e-39
-0.0081286142 0.00027300001 0.026514102 9.219563e-39
-0.0086121168 0.00027300001 0.026115011 9.219563e-39
-0.024260908 0.00027300001 0.02723223 9.219563e-39
-0.0081018284 0.00027300001 0.026124414 9.219563e-39
-0.013647288 0.00027300001 0.026408501 9.219563e-39
-0.0087994868 0.00027300001 0.026516899 9.219563e-39
-0.009645002 0.00027300001 0.02610204 9.219563e-39
-0.011090249 0.00027300001 0.026105229 9.219563e-39
-0.0077865147 0.00027300001 0.025916863 9.219563e-39
-0.020539971 0.00027300001 0.02689648 9.219563e-39
-0.012667645 0.00027300001 0.026296284 9.219563e-39
-0.014014568 0.00027300001 0.026569601 9.219563e-39
-0.017524537 0.00027300001 0.026776813 9.219563e-39
-0.020094922 0.00027300001 0.026936594 9.219563e-39
-0.011814346 0.00027300001 0.026354801 9.219563e-39
-0.014397589 0.00027300001 0.026578542 9.219563e-39
-0.022505639 0.00027300001 0.027165551 9.219563e-39
-0.0073767309 0.00027300001 0.026024953 9.219563e-39
-0.0092860227 0.00027300001 0.025935598 9.219563e-39
-0.016658705 0.00027300001 0.026783057 9.219563e-39
-0.0092462562 0.00027300001 0.026349876 9.219563e-39
-0.00033576161 0.00027300001 0.033016186 9.219563e-39
-0.00054141419 0.00027300001 0.037823576 9.219563e-39
-0.00055353565 0.00027300001 0.039832909 9.219563e-39
-0.00061270467 0.00027300001 0.042155538 9.219563e-39
-0.00082161196 0.00027300001 0.043590389 9.219563e-39
-8.3618681e-05 0.00027300001 0.033293016 9.219563e-39
-0.0010294857 0.00027300001 0.050237786 9.219563e-39
-0.0006813269 0.00027300001 0.03909969 9.219563e-39
-0.00071138452 0.00027300001 0.035937581 9.219563e-39
2.7868498e-05 0.00027300001 0.032849398 9.219563e-39
-0.00031018321 0.00027300001 0.036074545 9.219563e-39
-0.00022532884 0.00027300001 0.037538815 9.219563e-39
-0.00059954473 0.00027300001 0.040882338 9.219563e-39
-0.00057267281 0.00027300001 0.03369927 9.219563e-39
-0.00029660485 0.00027300001 0.035678294 9.219563e-39
-0.00017151311 0.00027300001 0.033901844 9.219563e-39
-0.00012569492 0.00027300001 0.03518727 9.219563e-39
-0.00050039124 0.00027300001 0.034879688 9.219563e-39
-0.00089247426 0.00027300001 0.047675934 9.219563e-39
-0.00056592212 0.00027300001 0.037056342 9.219563e-39
-0.00053039484 0.00027300001 0.035275441 9.219563e-39
-0.00071042142 0.00027300001 0.044647012 9.219563e-39
-0.00050874485 0.00027300001 0.038437113 9.219563e-39
-0.00037332837 0.00027300001 0.034446537 9.219563e-39
-0.00059253036 0.00027300001 0.03408812 9.219563e-39
-0.00053528155 0.00027300001 0.040225357 9.219563e-39
-0.00081661955 0.00027300001 0.04257568 9.219563e-39
-0.00031001319 0.00027300001 0.036643434 9.219563e-39
-0.0005324721 0.00027300001 0.042888023 9.219563e-39
0.00085534109 0.00027300001 0.047588598 9.219563e-39
0.0004147162 0.00027300001 0.038777225 9.219563e-39
0.0012883326 0.00027300001 0.048109982 9.219563e-39
0.0018239227 0.00027300001 0.049392108 9.219563e-39
0.0016960492 0.00027300001 0.048119243 9.219563e-39
0.00179077 0.00027300001 0.048504855 9.219563e-39
0.00069484964 0.00027300001 0.040613994 9.219563e-39
0.0004709404 0.00027300001 0.042419642 9.219563e-39
0.0010181665 0.00027300001 0.050030876 9.219563e-39
0.0015870972 0.00027300001 0.050517317 9.219563e-39
0.0005932381 0.00027300001 0.041869886 9.219563e-39
0.0011616199 0.00027300001 0.045887191 9.219563e-39
0.0013785396 0.00027300001 0.049499702 9.219563e-39
0.00047952865 0.00027300001 0.036172599 9.219563e-39
0.001328154 0.00027300001 0.046977159 9.219563e-39
0.00053924049 0.00027300001 0.049370077 9.219563e-39
0.00081229676 0.00027300001 0.047133472 9.219563e-39
0.00071515533 0.00027300001 0.048629854 9.219563e-39
0.00051898585 0.00027300001 0.039224118 9.219563e-39
0.0018703053 0.00027300001 0.049793761 9.219563e-39
0.0011343836 0.00027300001 0.044080608 9.219563e-39
0.0005024061 0.00027300001 0.036640029 9.219563e-39
0.00041746389 0.00027300001 0.038364459 9.219563e-39
0.00034128354 0.00027300001 0.039643053 9.219563e-39
0.00079855556 0.00027300001 0.041490279 9.219563e-39
0.00041537199 0.00027300001 0.043964732 9.219563e-39
0.0008101181 0.00027300001 0.049682964 9.219563e-39
0.0010042909 0.00027300001 0.049295429 9.219563e-39
0.0011185147 0.00027300001 0.043104943 9.219563e-39
0.00072500086 0.00027300001 0.043699916 9.219563e-39
0.0015312316 0.00027300001 0.045584437 9.219563e-39
0.0011043305 0.00027300001 0.042007368 9.219563e-39
0.0015538057 0.00027300001 0.04761092 9.219563e-39
0.0010058603 0.00027300001 0.044485029 9.219563e-39
0.0005706122 0.00027300001 0.037125684 9.219563e-39
0.0011430645 0.00027300001 0.043487456 9.219563e-39
0.0013805939 0.00027300001 0.046233755 9.219563e-39
0.0014086355 0.00027300001 0.050092619 9.219563e-39
0.00056267431 0.00027300001 0.044418897 9.219563e-39
0.0013116348 0.00027300001 0.049105939 9.219563e-39
0.0013222717 0.00027300001 0.045008942 9.219563e-39
0.0005855558 0.00027300001 0.040997263 9.219563e-39
0.00060846022 0.00027300001 0.045340292 9.219563e-39
0.00030163972 0.00027300001 0.035817601 9.219563e-39
0.00038529796 0.00027300001 0.041360699 9.219563e-39
0.00066130701 0.00027300001 0.037785742 9.219563e-39
0.00079136336 0.00027300001 0.038913712 9.219563e-39
0.0013786092 0.00027300001 0.048532087 9.219563e-39
0.00066184945 0.00027300001 0.048105057 9.219563e-39
0.00077633397 0.00027300001 0.043260902 9.219563e-39
0.00054489542 0.00027300001 0.046544503 9.219563e-39
0.00095684122 0.00027300001 0.04890978 9.219563e-39
0.00068440492 0.00027300001 0.044837728 9.219563e-39
0.0011005306 0.00027300001 0.045415558 9.219563e-39
0.00027857901 0.00027300001 0.034815099 9.219563e-39
0.000685893 0.00027300001 0.03994422 9.219563e-39
0.00025319331 0.00027300001 0.047855113 9.219563e-39
9.7389442e-05 0.00027300001 0.049350332 9.219563e-39
1.44837e-05 0.00027300001 0.043914583 9.219563e-39
1.2931614e-05 0.00027300001 0.038881995 9.219563e-39
0.00035038815 0.00027300001 0.048405278 9.219563e-39
-0.00035563635 0.00027300001 0.041174822 9.219563e-39
0.00012895931 0.00027300001 0.037408713 9.219563e-39
-9.4551826e-05 0.00027300001 0.039359398 9.219563e-39
-0.00046001258 0.00027300001 0.045502078 9.219563e-39
-0.00053877902 0.00027300001 0.047043499 9.219563e-39
0.00021193906 0.00027300001 0.041749027 9.219563e-39
0.0004203952 0.00027300001 0.046093915 9.219563e-39
-0.00061801763 0.00027300001 0.046625014 9.219563e-39
6.2837629e-05 0.00027300001 0.042574532 9.219563e-39
0.00014211034 0.00027300001 0.048713665 9.219563e-39
-6.4568434e-05 0.00027300001 0.040409133 9.219563e-39
0.0001670202 0.00027300001 0.045800548 9.219563e-39
-0.00046011104 0.00027300001 0.050607141 9.219563e-39
-0.00031208704 0.00027300001 0.048900258 9.219563e-39
0.0001199828 0.00027300001 0.045124527 9.219563e-39
-4.2342563e-05 0.00027300001 0.050150085 9.219563e-39
-0.00056985766 0.00027300001 0.049668927 9.219563e-39
-9.0943962e-05 0.00027300001 0.040799379 9.219563e-39
-0.0003380769 0.00027300001 0.049337465 9.219563e-39
0.00013298396 0.00027300001 0.047073942 9.219563e-39
-0.00020064664 0.00027300001 0.044836883 9.219563e-39
-0.00036368929 0.00027300001 0.048496921 9.219563e-39
0.00033888864 0.00027300001 0.040710039 9.219563e-39
9.9640631e-05 0.00027300001 0.036988266 9.219563e-39
-0.00047915208 0.00027300001 0.043477241 9.219563e-39
-0.00013729605 0.00027300001 0.040003933 9.219563e-39
8.7131222e-05 0.00027300001 0.036587413 9.219563e-39
-0.00024827945 0.00027300001 0.042210784 9.219563e-39
-0.00025306988 0.00027300001 0.041811794 9.219563e-39
4.7192872e-05 0.00027300001 0.044423331 9.219563e-39
8.3407227e-05 0.00027300001 0.03550496 9.219563e-39
0.00024313806 0.00027300001 0.040215831 9.219563e-39
-0.00071450422 0.00027300001 0.045832124 9.219563e-39
-0.00091580907 0.00027300001 0.048798267 9.219563e-39
0.00020531162 0.00027300001 0.037843708 9.219563e-39
-0.00019654554 0.00027300001 0.046264123 9.219563e-39
0.00030843486 0.00027300001 0.042914946 9.219563e-39
-1.7505306e-05 0.00027300001 0.038309574 9.219563e-39
-0.00045740657 0.00027300001 0.04810429 9.219563e-39
-0.00010138821 0.00027300001 0.04310127 9.219563e-39
-0.00054981984 0.00027300001 0.043922421 9.219563e-39
0.00019397227 0.00027300001 0.033663135 9.219563e-39
-0.00082323112 0.00027300001 0.04805753 9.219563e-39
-0.00048015872 0.00027300001 0.04507938 9.219563e-39
3.5133271e-05 0.00027300001 0.043492433 9.219563e-39
-6.422626e-06 0.00027300001 0.048156809 9.219563e-39
0.00031255584 0.00027300001 0.047391351 9.219563e-39
-0.00069982006 0.00027300001 0.050068568 9.219563e-39
-0.0002085891 0.00027300001 0.046790566 9.219563e-39
0.0001210983 0.00027300001 0.046564054 9.219563e-39
-0.00029585973 0.00027300001 0.047314178 9.219563e-39
-0.00031028333 0.00027300001 0.047697436 9.219563e-39
0.00028578076 0.00027300001 0.044774592 9.219563e-39
-0.00071980612 0.00027300001 0.049293589 9.219563e-39
-6.4282169e-05 0.00027300001 0.049767341 9.219563e-39
-0.016689355 0.00027300001 0.024320334 9.219563e-39
-0.022640821 0.00027300001 0.023141406 9.219563e-39
-0.016066389 0.00027300001 0.023766484 9.219563e-39
-0.013659844 0.00027300001 0.0242332 9.219563e-39
-0.02079691 0.00027300001 0.023986686 9.219563e-39
-0.023285558 0.00027300001 0.023747411 9.219563e-39
-0.023935482 0.00027300001 0.024114661 9.219563e-39
-0.021213805 0.00027300001 0.023828857 9.219563e-39
-0.015698511 0.00027300001 0.023962162 9.219563e-39
-0.019039018 0.00027300001 0.023939196 9.219563e-39
-0.012159257 0.00027300001 0.024606835 9.219563e-39
-0.02394844 0.00027300001 0.023692757 9.219563e-39
-0.01835384 0.00027300001 0.023756709 9.219563e-39
-0.022711849 0.00027300001 0.023542542 9.219563e-39
-0.015116446 0.00027300001 0.024372328 9.219563e-39
-0.024295339 0.00027300001 0.023975089 9.219563e-39
-0.014782842 0.00027300001 0.023854934 9.219563e-39
-0.023964383 0.00027300001 0.022811946 9.219563e-39
-0.024662711 0.00027300001 0.02393743 9.219563e-39
-0.015118245 0.00027300001 0.023980197 9.219563e-39
-0.024030985 0.00027300001 0.02324535 9.219563e-39
-0.014567296 0.00027300001 0.024519805 9.219563e-39
-0.019058095 0.00027300001 0.023513641 9.219563e-39
-0.021577377 0.00027300001 0.023644105 9.219563e-39
-0.020494744 0.00027300001 0.023195636 9.219563e-39
-0.022298073 0.00027300001 0.024016682 9.219563e-39
-0.021722695 0.00027300001 0.024035845 9.219563e-39
-0.011879764 0.00027300001 0.024352759 9.219563e-39
-0.019694936 0.00027300001 0.023965858 9.219563e-39
-0.023561094 0.00027300001 0.022893582 9.219563e-39
-0.016944833 0.00027300001 0.023995478 9.219563e-39
-0.019915709 0.00027300001 0.024271023 9.219563e-39
-0.020861037 0.00027300001 0.023168352 9.219563e-39
-0.02509651 0.00027300001 0.02379255 9.219563e-39
-0.01241406 0.00027300001 0.024196792 9.219563e-39
-0.017339606 0.00027300001 0.023942605 9.219563e-39
-0.023080001 0.00027300001 0.023117349 9.219563e-39
-0.02466506 0.00027300001 0.022967838 9.219563e-39
-0.024778893 0.00027300001 0.023477182 9.219563e-39
-0.019662116 0.00027300001 0.023285251 9.219563e-39
-0.02357004 0.00027300001 0.023366705 9.219563e-39
-0.022117618 0.00027300001 0.023539513 9.219563e-39
-0.01118707 0.00027300001 0.02438632 9.219563e-39
-0.020283323 0.00027300001 0.023592379 9.219563e-39
-0.02038087 0.00027300001 0.02408519 9.219563e-39
-0.010898676 0.00027300001 0.024611916 9.219563e-39
-0.014008527 0.00027300001 0.024325125 9.219563e-39
-0.018609641 0.00027300001 0.024038013 9.219563e-39
-0.02110555 0.00027300001 0.024237461 9.219563e-39
-0.016532656 0.00027300001 0.023727179 9.219563e-39
-0.019865191 0.00027300001 0.023639552 9.219563e-39
-0.017906347 0.00027300001 0.023626782 9.219563e-39
-0.013323138 0.00027300001 0.024558544 9.219563e-39
-0.016151704 0.00027300001 0.024110626 9.219563e-39
-0.021234127 0.00027300001 0.02331993 9.219563e-39
-0.018141052 0.00027300001 0.024176806 9.219563e-39
-0.023960838 0.00027300001 0.021864232 9.219563e-39
-0.023160784 0.00027300001 0.021557219 9.219563e-39
-0.015627051 0.00027300001 0.023353923 9.219563e-39
-0.020171035 0.00027300001 0.02195555 9.219563e-39
-0.023617359 0.00027300001 0.021644913 9.219563e-39
-0.018234801 0.00027300001 0.023279618 9.219563e-39
-0.018678611 0.00027300001 0.022478189 9.219563e-39
-0.019385586 0.00027300001 0.022229303 9.219563e-39
-0.024173029 0.00027300001 0.021516342 9.219563e-39
-0.012237399 0.00027300001 0.023875758 9.219563e-39
-0.024339613 0.00027300001 0.021040373 9.219563e-39
-0.017116524 0.00027300001 0.023528598 9.219563e-39
-0.018255461 0.00027300001 0.022878308 9.219563e-39
-0.020013863 0.00027300001 0.022922367 9.219563e-39
-0.0086385813 0.00027300001 0.024571296 9.219563e-39
-0.013500905 0.00027300001 0.023766894 9.219563e-39
-0.016352586 0.00027300001 0.023179449 9.219563e-39
-0.02456403 0.00027300001 0.021394882 9.219563e-39
-0.01999714 0.00027300001 0.022320222 9.219563e-39
-0.022124963 0.00027300001 0.022810727 9.219563e-39
-0.011367906 0.00027300001 0.024023943 9.219563e-39
-0.023103636 0.00027300001 0.021967433 9.219563e-39
-0.022480678 0.00027300001 0.022639066 9.219563e-39
-0.024245212 0.00027300001 0.022449773 9.219563e-39
-0.01452916 0.00027300001 0.023472 9.219563e-39
-0.021351371 0.00027300001 0.022186901 9.219563e-39
-0.01060179 0.00027300001 0.024198402 9.219563e-39
-0.021663377 0.00027300001 0.021865025 9.219563e-39
-0.02373728 0.00027300001 0.022346083 9.219563e-39
-0.010175154 0.00027300001 0.024213772 9.219563e-39
-0.021108193 0.00027300001 0.022747207 9.219563e-39
-0.015249443 0.00027300001 0.023250077 9.219563e-39
-0.022766754 0.00027300001 0.021492645 9.219563e-39
-0.017484309 0.00027300001 0.022834163 9.219563e-39
-0.017600477 0.00027300001 0.023276519 9.219563e-39
-0.018661762 0.00027300001 0.023263853 9.219563e-39
-0.021998346 0.00027300001 0.021700453 9.219563e-39
-0.022131748 0.00027300001 0.022379313 9.219563e-39
-0.023151068 0.00027300001 0.022446282 9.219563e-39
-0.022822868 0.00027300001 0.02276504 9.219563e-39
-0.021549016 0.00027300001 0.022911672 9.219563e-39
-0.017079676 0.00027300001 0.022889256 9.219563e-39
-0.021191314 0.00027300001 0.021745324 9.219563e-39
-0.020557834 0.00027300001 0.022775903 9.219563e-39
-0.015971877 0.00027300001 0.023050647 9.219563e-39
-0.019249471 0.00027300001 0.0226712 9.219563e-39
-0.016685136 0.00027300001 0.023365431 9.219563e-39
-0.022811782 0.00027300001 0.022256538 9.219563e-39
-0.019698847 0.00027300001 0.022629187 9.219563e-39
-0.020648329 0.00027300001 0.022283845 9.219563e-39
-0.017835576 0.00027300001 0.022477325 9.219563e-39
-0.014088723 0.00027300001 0.023604903 9.219563e-39
-0.024557445 0.00027300001 0.02191316 9.219563e-39
-0.024907675 0.00027300001 0.022512436 9.219563e-39
-0.013011469 0.00027300001 0.023918711 9.219563e-39
-0.021776086 0.00027300001 0.022232428 9.219563e-39
-0.022360234 0.00027300001 0.021937758 9.219563e-39
-0.018992826 0.00027300001 0.023100946 9.219563e-39
-0.010516574 0.00027300001 0.02473744 9.219563e-39
-0.014114539 0.00027300001 0.024948504 9.219563e-39
-0.0072127893 0.00027300001 0.025285896 9.219563e-39
-0.012950176 0.00027300001 0.025162976 9.219563e-39
-0.010505638 0.00027300001 0.025152694 9.219563e-39
-0.011469824 0.00027300001 0.024866816 9.219563e-39
-0.016840937 0.00027300001 0.024799265 9.219563e-39
-0.021725273 0.00027300001 0.024403252 9.219563e-39
-0.017120406 0.00027300001 0.024550144 9.219563e-39
-0.016303593 0.00027300001 0.024628639 9.219563e-39
-0.019576419 0.00027300001 0.024549376 9.219563e-39
-0.0096396953 0.00027300001 0.024783533 9.219563e-39
-0.0080227694 0.00027300001 0.024918396 9.219563e-39
-0.0087546334 0.00027300001 0.024934441 9.219563e-39
-0.0076439548 0.00027300001 0.025027722 9.219563e-39
-0.0075144093 0.00027300001 0.025607344 9.219563e-39
-0.013762336 0.00027300001 0.024661042 9.219563e-39
-0.0088942107 0.00027300001 0.025301285 9.219563e-39
-0.015622287 0.00027300001 0.024619222 9.219563e-39
-0.017552268 0.00027300001 0.024498943 9.219563e-39
-0.018567983 0.00027300001 0.024492916 9.219563e-39
-0.0094448151 0.00027300001 0.025114186 9.219563e-39
-0.0084272558 0.00027300001 0.025151145 9.219563e-39
-0.012565062 0.00027300001 0.024902496 9.219563e-39
-0.015964845 0.00027300001 0.024869304 9.219563e-39
-0.010083804 0.00027300001 0.02484227 9.219563e-39
-0.01212778 0.00027300001 0.025074329 9.219563e-39
-0.0078230947 0.00027300001 0.025351714 9.219563e-39
-0.011105222 0.00027300001 0.024984006 9.219563e-39
-0.015222349 0.00027300001 0.024724245 9.219563e-39
-0.0098348288 0.00027300001 0.02518899 9.219563e-39
-0.020287396 0.00027300001 0.024434894 9.219563e-39
0.0036901671 0.00027300001 0.049493391 9.219563e-39
0.0026153205 0.00027300001 0.0409334 9.219563e-39
0.0023325826 0.00027300001 0.038214348 9.219563e-39
0.0036338896 0.00027300001 0.044117566 9.219563e-39
0.0037030317 0.00027300001 0.043595031 9.219563e-39
0.0041203545 0.00027300001 0.048147012 9.219563e-39
0.0026717375 0.00027300001 0.043208119 9.219563e-39
0.0044516264 0.00027300001 0.046870437 9.219563e-39
0.0019365187 0.00027300001 0.037547231 9.219563e-39
0.0040739188 0.00027300001 0.045780536 9.219563e-39
0.0043885252 0.00027300001 0.047910016 9.219563e-39
0.0029030419 0.00027300001 0.041370299 9.219563e-39
0.003966595 0.00027300001 0.046234172 9.219563e-39
0.0014567878 0.00027300001 0.035041001 9.219563e-39
0.0041299965 0.00027300001 0.048824746 9.219563e-39
0.00395934 0.00027300001 0.047630485 9.219563e-39
0.0036283876 0.00027300001 0.048735399 9.219563e-39
0.0017937319 0.00027300001 0.036582116 9.219563e-39
0.0047149914 0.00027300001 0.047637466 9.219563e-39
0.0033697521 0.00027300001 0.043851428 9.219563e-39
0.0043039867 0.00027300001 0.047456529 9.219563e-39
0.0035022029 0.00027300001 0.046604458 9.219563e-39
0.0025182713 0.00027300001 0.041338921 9.219563e-39
0.0018837126 0.00027300001 0.036154274 9.219563e-39
0.0039227796 0.00027300001 0.044960059 9.219563e-39
0.0014102295 0.00027300001 0.034082431 9.219563e-39
0.0032298346 0.00027300001 0.041640129 9.219563e-39
0.0042388048 0.00027300001 0.049601715 9.219563e-39
0.0038903779 0.00027300001 0.048478667 9.219563e-39
0.0045499364 0.00027300001 0.04980642 9.219563e-39
0.002197328 0.00027300001 0.039056469 9.219563e-39
0.0033508162 0.00027300001 0.047079865 9.219563e-39
0.0030397538 0.00027300001 0.042806227 9.219563e-39
0.0019370731 0.00027300001 0.037105523 9.219563e-39
0.0030697596 0.00027300001 0.045122329 9.219563e-39
0.0049446155 0.00027300001 0.049459133 9.219563e-39
0.0030415843 0.00027300001 0.042244866 9.219563e-39
0.0032567726 0.00027300001 0.045975309 9.219563e-39
0.0030313833 0.00027300001 0.04402899 9.219563e-39
0.0030988494 0.00027300001 0.044535834 9.219563e-39
0.0024269004 0.00027300001 0.039611731 9.219563e-39
0.0016194396 0.00027300001 0.035491608 9.219563e-39
0.0037237918 0.00027300001 0.045907494 9.219563e-39
0.0021355466 0.00027300001 0.037888214 9.219563e-39
0.0042196447 0.00027300001 0.046551753 9.219563e-39
0.0033415204 0.00027300001 0.044849828 9.219563e-39
0.0026344152 0.00027300001 0.041814461 9.219563e-39
0.0027169876 0.00027300001 0.043565016 9.219563e-39
0.0030564901 0.00027300001 0.045534994 9.219563e-39
0.0036006526 0.00027300001 0.047687326 9.219563e-39
0.004634703 0.00027300001 0.049241494 9.219563e-39
0.0037335104 0.00027300001 0.044522677 9.219563e-39
0.002635641 0.00027300001 0.040205915 9.219563e-39
0.0038009908 0.00027300001 0.046958614 9.219563e-39
0.0043658535 0.00027300001 0.046193894 9.219563e-39
0.0032038903 0.00027300001 0.043502696 9.219563e-39
0.0017992276 0.00027300001 0.04099137 9.219563e-39
0.0026925209 0.00027300001 0.044540901 9.219563e-39
0.0020625626 0.00027300001 0.048015822 9.219563e-39
0.0027549313 0.00027300001 0.048723701 9.219563e-39
0.0021850918 0.00027300001 0.045003269 9.219563e-39
0.0016529473 0.00027300001 0.041751537 9.219563e-39
0.0028313196 0.00027300001 0.046672653 9.219563e-39
0.0021927909 0.00027300001 0.040953718 9.219563e-39
0.0023851458 0.00027300001 0.044185955 9.219563e-39
0.0020172298 0.00027300001 0.040518563 9.219563e-39
0.0034055989 0.00027300001 0.048383463 9.219563e-39
0.0020573603 0.00027300001 0.039515328 9.219563e-39
0.0013704197 0.00027300001 0.037270274 9.219563e-39
0.0029486762 0.00027300001 0.048327181 9.219563e-39
0.0029832637 0.00027300001 0.047857288 9.219563e-39
0.0023352837 0.00027300001 0.048860829 9.219563e-39
0.0024143024 0.00027300001 0.046708208 9.219563e-39
0.0031809544 0.00027300001 0.04880115 9.219563e-39
0.0036071129 0.00027300001 0.050022248 9.219563e-39
0.001952304 0.00027300001 0.04212065 9.219563e-39
0.002347823 0.00027300001 0.048483077 9.219563e-39
0.0015866973 0.00027300001 0.0369373 9.219563e-39
0.0024953356 0.00027300001 0.048140649 9.219563e-39
0.0025860367 0.00027300001 0.046156306 9.219563e-39
0.0021271834 0.00027300001 0.043386891 9.219563e-39
0.0020147818 0.00027300001 0.044363186 9.219563e-39
0.0030516004 0.00027300001 0.047319595 9.219563e-39
0.0026368955 0.00027300001 0.045642819 9.219563e-39
0.0019155473 0.00027300001 0.038723867 9.219563e-39
0.0015401779 0.00027300001 0.038485628 9.219563e-39
0.0030550119 0.00027300001 0.050242025 9.219563e-39
0.0026178171 0.00027300001 0.050006006 9.219563e-39
0.0026528407 0.00027300001 0.047043543 9.219563e-39
0.0020380546 0.00027300001 0.043883979 9.219563e-39
0.0022315788 0.00027300001 0.041570146 9.219563e-39
0.0022325329 0.00027300001 0.047048736 9.219563e-39
0.0026948075 0.00027300001 0.045034654 9.219563e-39
0.0023303493 0.00027300001 0.042953242 9.219563e-39
0.003056403 0.00027300001 0.046363015 9.219563e-39
0.0026079249 0.00027300001 0.047515873 9.219563e-39
0.0018265637 0.00027300001 0.044673219 9.219563e-39
0.002170481 0.00027300001 0.042573504 9.219563e-39
0.0027446009 0.00027300001 0.04917055 9.219563e-39
0.002331553 0.00027300001 0.042158555 9.219563e-39
0.0022125591 0.00027300001 0.050043691 9.219563e-39
0.0033060212 0.00027300001 0.049783338 9.219563e-39
0.0017718232 0.00027300001 0.040186372 9.219563e-39
0.0022576051 0.00027300001 0.045935396 9.219563e-39
0.0029254528 0.00027300001 0.049755741 9.219563e-39
0.0017509183 0.00027300001 0.03801883 9.219563e-39
0.0022580402 0.00027300001 0.045411289 9.219563e-39
0.0022585872 0.00027300001 0.049506892 9.219563e-39
0.0017657629 0.00027300001 0.042596299 9.219563e-39
0.0010572447 0.00027300001 0.037037753 9.219563e-39
0.0014941683 0.00027300001 0.04429451 9.219563e-39
0.0015652559 0.00027300001 0.043448683 9.219563e-39
0.00065193692 0.00027300001 0.033353686 9.219563e-39
0.0019919281 0.00027300001 0.04898813 9.219563e-39
0.001154107 0.00027300001 0.040215164 9.219563e-39
0.0016093011 0.00027300001 0.043897972 9.219563e-39
0.00098214892 0.00027300001 0.034592539 9.219563e-39
0.0013159435 0.00027300001 0.041190676 9.219563e-39
0.00056908926 0.00027300001 0.035471357 9.219563e-39
0.0018624043 0.00027300001 0.046614084 9.219563e-39
0.00028835077 0.00027300001 0.032481696 9.219563e-39
0.00070172769 0.00027300001 0.035039082 9.219563e-39
0.00041592534 0.00027300001 0.034316469 9.219563e-39
0.0010857019 0.00027300001 0.036390536 9.219563e-39
0.0018474978 0.00027300001 0.047146987 9.219563e-39
0.0014779154 0.00027300001 0.039809689 9.219563e-39
0.001395143 0.00027300001 0.042781025 9.219563e-39
0.0011815979 0.00027300001 0.035990246 9.219563e-39
0.0019293881 0.00027300001 0.047640976 9.219563e-39
0.00090713479 0.00027300001 0.037372004 9.219563e-39
0.0010270877 0.00027300001 0.039745584 9.219563e-39
0.00081788551 0.00027300001 0.038357932 9.219563e-39
0.0013318221 0.00027300001 0.037884478 9.219563e-39
0.0009694763 0.00027300001 0.035368714 9.219563e-39
0.00086419395 0.00027300001 0.032906879 9.219563e-39
0.0013039818 0.00027300001 0.039063215 9.219563e-39
0.0014721286 0.00027300001 0.042293854 9.219563e-39
0.0003891261 0.00027300001 0.032854736 9.219563e-39
0.0010565177 0.00027300001 0.038626667 9.219563e-39
0.0010598766 0.00027300001 0.033301506 9.219563e-39
0.0011493153 0.00027300001 0.040802535 9.219563e-39
0.0008401153 0.00027300001 0.033901125 9.219563e-39
0.0018389447 0.00027300001 0.04612634 9.219563e-39
0.00069394044 0.00027300001 0.032548096 9.219563e-39
-0.010892857 0.00027300001 0.023727935 9.219563e-39
-0.011397625 0.00027300001 0.023444004 9.219563e-39
-0.013608192 0.00027300001 0.023237538 9.219563e-39
-0.018310783 0.00027300001 0.022259064 9.219563e-39
-0.0080523919 0.00027300001 0.024425965 9.219563e-39
-0.014986202 0.00027300001 0.022889555 9.219563e-39
-0.010350273 0.00027300001 0.023843892 9.219563e-39
-0.0073285899 0.00027300001 0.024340868 9.219563e-39
-0.014428216 0.00027300001 0.022959042 9.219563e-39
-0.016704597 0.00027300001 0.022584006 9.219563e-39
-0.013975534 0.00027300001 0.023156233 9.219563e-39
-0.0092556765 0.00027300001 0.023887262 9.219563e-39
-0.0073858998 0.00027300001 0.0247414 9.219563e-39
-0.016320281 0.00027300001 0.022677384 9.219563e-39
-0.018960282 0.00027300001 0.022034794 9.219563e-39
-0.0090178549 0.00027300001 0.024382003 9.219563e-39
-0.011843037 0.00027300001 0.023643464 9.219563e-39
-0.0078389542 0.00027300001 0.024043858 9.219563e-39
-0.013120049 0.00027300001 0.02312937 9.219563e-39
-0.0172794 0.00027300001 0.022526052 9.219563e-39
-0.02055531 0.00027300001 0.021802429 9.219563e-39
-0.0082991011 0.00027300001 0.023834188 9.219563e-39
-0.008818266 0.00027300001 0.023957934 9.219563e-39
-0.0085104173 0.00027300001 0.024174094 9.219563e-39
-0.0096965898 0.00027300001 0.024136115 9.219563e-39
-0.0096561015 0.00027300001 0.02372656 9.219563e-39
-0.012407496 0.00027300001 0.023119006 9.219563e-39
-0.012661437 0.00027300001 0.02343487 9.219563e-39
-0.015690701 0.00027300001 0.02276852 9.219563e-39
-0.011380848 0.00027300001 0.023070406 9.219563e-39
-0.022772593 0.00027300001 0.021020032 9.219563e-39
-0.012071113 0.00027300001 0.022932667 9.219563e-39
-0.013758312 0.00027300001 0.022707362 9.219563e-39
-0.020367751 0.00027300001 0.021276865 9.219563e-39
-0.016557844 0.00027300001 0.022214428 9.219563e-39
-0.02347606 0.00027300001 0.020194791 9.219563e-39
-0.020754257 0.00027300001 0.020789526 9.219563e-39
-0.020970073 0.00027300001 0.021423638 9.219563e-39
-0.012749487 0.00027300001 0.022779539 9.219563e-39
-0.023210162 0.00027300001 0.02081969 9.219563e-39
-0.015824823 0.00027300001 0.021695077 9.219563e-39
-0.0088126762 0.00027300001 0.023515176 9.219563e-39
-0.014883691 0.00027300001 0.022141378 9.219563e-39
-0.022772994 0.00027300001 0.020107176 9.219563e-39
-0.020490471 0.00027300001 0.020477105 9.219563e-39
-0.01742899 0.00027300001 0.021904264 9.219563e-39
-0.024164015 0.00027300001 0.019463938 9.219563e-39
-0.023129571 0.00027300001 0.019799963 9.219563e-39
-0.019677782 0.00027300001 0.020782575 9.219563e-39
-0.013404459 0.00027300001 0.022487059 9.219563e-39
-0.012928682 0.00027300001 0.02243701 9.219563e-39
-0.01937012 0.00027300001 0.02175881 9.219563e-39
-0.0098911365 0.00027300001 0.023354076 9.219563e-39
-0.01973252 0.00027300001 0.021706551 9.219563e-39
-0.023004461 0.00027300001 0.020490613 9.219563e-39
-0.021587199 0.00027300001 0.020336833 9.219563e-39
-0.01953206 0.00027300001 0.02111714 9.219563e-39
-0.020098155 0.00027300001 0.021581922 9.219563e-39
-0.021701887 0.00027300001 0.020896811 9.219563e-39
-0.014267746 0.00027300001 0.022182524 9.219563e-39
-0.010350829 0.00027300001 0.023123451 9.219563e-39
-0.015069633 0.00027300001 0.022498753 9.219563e-39
-0.015622146 0.00027300001 0.022096772 9.219563e-39
-0.018813744 0.00027300001 0.021534581 9.219563e-39
-0.021196043 0.00027300001 0.021113388 9.219563e-39
-0.020956302 0.00027300001 0.020421565 9.219563e-39
-0.017100766 0.00027300001 0.022144847 9.219563e-39
-0.022453813 0.00027300001 0.020334367 9.219563e-39
-0.024632839 0.00027300001 0.020451669 9.219563e-39
-0.018775102 0.00027300001 0.021092445 9.219563e-39
-0.023937777 0.00027300001 0.020315487 9.219563e-39
-0.017945101 0.00027300001 0.021765407 9.219563e-39
-0.019121228 0.00027300001 0.021297045 9.219563e-39
-0.016254541 0.00027300001 0.021649059 9.219563e-39
-0.020174699 0.00027300001 0.020920414 9.219563e-39
-0.02391337 0.00027300001 0.02074841 9.219563e-39
-0.021812225 0.00027300001 0.021302525 9.219563e-39
-0.01415746 0.00027300001 0.022582699 9.219563e-39
-0.0092765335 0.00027300001 0.023513712 9.219563e-39
-0.018408742 0.00027300001 0.021144867 9.219563e-39
-0.017543152 0.00027300001 0.021371711 9.219563e-39
-0.02228828 0.00027300001 0.021134913 9.219563e-39
-0.016785264 0.00027300001 0.021492947 9.219563e-39
-0.018444384 0.00027300001 0.021589931 9.219563e-39
-0.022561751 0.00027300001 0.018759243 9.219563e-39
-0.019339297 0.00027300001 0.019667409 9.219563e-39
-0.022223948 0.00027300001 0.018927258 9.219563e-39
-0.011504564 0.00027300001 0.022628952 9.219563e-39
-0.021452934 0.00027300001 0.018948004 9.219563e-39
-0.017681355 0.00027300001 0.02042105 9.219563e-39
-0.023277014 0.00027300001 0.018391073 9.219563e-39
-0.014334127 0.00027300001 0.021727949 9.219563e-39
-0.023454901 0.00027300001 0.019558787 9.219563e-39
-0.022252128 0.00027300001 0.019350708 9.219563e-39
-0.016003408 0.00027300001 0.020950589 9.219563e-39
-0.016372744 0.00027300001 0.020783145 9.219563e-39
-0.010038483 0.00027300001 0.022884816 9.219563e-39
-0.02320738 0.00027300001 0.019240897 9.219563e-39
-0.017020836 0.00027300001 0.020902108 9.219563e-39
-0.020820448 0.00027300001 0.019658118 9.219563e-39
-0.020722754 0.00027300001 0.019126177 9.219563e-39
-0.022955703 0.00027300001 0.018656485 9.219563e-39
-0.020056129 0.00027300001 0.01951794 9.219563e-39
-0.013009866 0.00027300001 0.021892194 9.219563e-39
-0.019229524 0.00027300001 0.020120341 9.219563e-39
-0.018886631 0.00027300001 0.019932505 9.219563e-39
-0.023570707 0.00027300001 0.019131307 9.219563e-39
-0.015298083 0.00027300001 0.021482129 9.219563e-39
-0.013932549 0.00027300001 0.022010919 9.219563e-39
-0.02253023 0.00027300001 0.019830994 9.219563e-39
-0.011843299 0.00027300001 0.022342101 9.219563e-39
-0.022614798 0.00027300001 0.019276626 9.219563e-39
-0.013796888 0.00027300001 0.02162493 9.219563e-39
-0.018056674 0.00027300001 0.0207249 9.219563e-39
-0.023908611 0.00027300001 0.01822681 9.219563e-39
-0.01965224 0.00027300001 0.019899216 9.219563e-39
-0.010711973 0.00027300001 0.022977628 9.219563e-39
-0.021581911 0.00027300001 0.019622304 9.219563e-39
-0.019933823 0.00027300001 0.020310394 9.219563e-39
-0.011037813 0.00027300001 0.022696983 9.219563e-39
-0.01601655 0.00027300001 0.02136232 9.219563e-39
-0.018425684 0.00027300001 0.020164907 9.219563e-39
-0.016608929 0.00027300001 0.02112937 9.219563e-39
-0.014860579 0.00027300001 0.021417197 9.219563e-39
-0.0095958207 0.00027300001 0.023107216 9.219563e-39
-0.021947069 0.00027300001 0.018625114 9.219563e-39
-0.019230118 0.00027300001 0.020526819 9.219563e-39
-0.015522326 0.00027300001 0.021153577 9.219563e-39
-0.018013462 0.00027300001 0.020187382 9.219563e-39
-0.017371874 0.00027300001 0.020221073 9.219563e-39
-0.021205612 0.00027300001 0.019495774 9.219563e-39
-0.012273748 0.00027300001 0.022382963 9.219563e-39
-0.020499442 0.00027300001 0.019846622 9.219563e-39
-0.021821231 0.00027300001 0.019068487 9.219563e-39
-0.022956762 0.00027300001 0.01821585 9.219563e-39
-0.013365788 0.00027300001 0.021985274 9.219563e-39
-0.023845669 0.00027300001 0.018667467 9.219563e-39
-0.017396403 0.00027300001 0.020904142 9.219563e-39
-0.021320548 0.00027300001 0.020096473 9.219563e-39
-0.018631767 0.00027300001 0.020570226 9.219563e-39
-0.017024849 0.00027300001 0.020478301 9.219563e-39
-0.020112354 0.00027300001 0.019963227 9.219563e-39
-0.021866247 0.00027300001 0.019916575 9.219563e-39
0.003075768 0.00027300001 0.040612105 9.219563e-39
0.0024403471 0.00027300001 0.037021827 9.219563e-39
0.0020030802 0.00027300001 0.034056097 9.219563e-39
0.0027749133 0.00027300001 0.038594503 9.219563e-39
0.0015675462 0.00027300001 0.03286403 9.219563e-39
0.002187497 0.00027300001 0.03641326 9.219563e-39
0.0031310378 0.00027300001 0.040039249 9.219563e-39
0.0033885778 0.00027300001 0.040413789 9.219563e-39
0.0026723233 0.00027300001 0.037406988 9.219563e-39
0.0035026451 0.00027300001 0.040911969 9.219563e-39
0.0032533503 0.00027300001 0.041234683 9.219563e-39
0.0013720696 0.00027300001 0.033627056 9.219563e-39
0.003726888 0.00027300001 0.042986296 9.219563e-39
0.0020114118 0.00027300001 0.035244573 9.219563e-39
0.0027611591 0.00027300001 0.039414041 9.219563e-39
0.003627992 0.00027300001 0.041714862 9.219563e-39
0.004191061 0.00027300001 0.045378089 9.219563e-39
0.0040179249 0.00027300001 0.044297189 9.219563e-39
0.0044655758 0.00027300001 0.045830306 9.219563e-39
0.0027488149 0.00027300001 0.03904989 9.219563e-39
0.0038423757 0.00027300001 0.042545009 9.219563e-39
0.0017589573 0.00027300001 0.034599908 9.219563e-39
0.0046243486 0.00027300001 0.04655287 9.219563e-39
0.0017233782 0.00027300001 0.033499725 9.219563e-39
0.0034540917 0.00027300001 0.042392492 9.219563e-39
0.0021031711 0.00027300001 0.034750286 9.219563e-39
0.0028731441 0.00027300001 0.037909128 9.219563e-39
0.0031586981 0.00027300001 0.038971853 9.219563e-39
0.0022820076 0.00027300001 0.035556972 9.219563e-39
0.0026343253 0.00027300001 0.036572665 9.219563e-39
0.0065919813 0.00027300001 0.046421785 9.219563e-39
0.0073491139 0.00027300001 0.048208643 9.219563e-39
0.0052499492 0.00027300001 0.043633334 9.219563e-39
0.0070233736 0.00027300001 0.046423864 9.219563e-39
0.0047636284 0.00027300001 0.041985825 9.219563e-39
0.0043372177 0.00027300001 0.039513621 9.219563e-39
0.0041748914 0.00027300001 0.038553003 9.219563e-39
0.0062835203 0.00027300001 0.046837766 9.219563e-39
0.0073424731 0.00027300001 0.047641438 9.219563e-39
0.0054679415 0.00027300001 0.041782517 9.219563e-39
0.0055540451 0.00027300001 0.044881798 9.219563e-39
0.0050338199 0.00027300001 0.040678389 9.219563e-39
0.0039401301 0.00027300001 0.039030589 9.219563e-39
0.0064198277 0.00027300001 0.044543389 9.219563e-39
