# .PCD v0.7 - Point Cloud Data file format
VERSION 0.7
FIELDS x y z rgb
SIZE 4 4 4 4
TYPE F F F F
COUNT 1 1 1 1
WIDTH 924
HEIGHT 1
VIEWPOINT 0 0 0 1 0 0 0
POINTS 924
DATA ascii
-0.016136175 -0.00066810846 0.019047145 9.219563e-39
-0.016616091 -0.0083588175 0.018639501 9.219563e-39
-0.015159955 -0.01372541 0.019876348 9.219563e-39
-0.015940687 -0.005268611 0.019213192 9.219563e-39
-0.015576659 -0.0047512064 0.019522399 9.219563e-39
-0.015220008 -0.0080498587 0.019825337 9.219563e-39
-0.016010981 -0.0028490899 0.019153483 9.219563e-39
-0.015370079 -0.01179204 0.019697867 9.219563e-39
-0.016252439 -0.014326902 0.018948387 9.219563e-39
-0.015951248 -0.0080868546 0.019204222 9.219563e-39
-0.015937528 0.0018746816 0.019215874 9.219563e-39
-0.015140416 0.0025349662 0.019892942 9.219563e-39
-0.01637008 -0.0058946344 0.018848464 9.219563e-39
-0.015421376 -0.00030752301 0.019654296 9.219563e-39
-0.015560998 -0.0059108548 0.019535702 9.219563e-39
-0.015305135 -0.0073085036 0.01975303 9.219563e-39
-0.015130348 -0.00091293087 0.019901495 9.219563e-39
-0.015397361 0.0067744893 0.019674694 9.219563e-39
-0.01597579 -0.011743071 0.019183375 9.219563e-39
-0.016986305 -0.013769129 0.018325042 9.219563e-39
-0.015458776 -0.0031925908 0.019622529 9.219563e-39
-0.015617594 -0.01275364 0.019487627 9.219563e-39
-0.015423873 -0.010333308 0.019652175 9.219563e-39
-0.016271694 -0.01507007 0.018932033 9.219563e-39
-0.015316296 0.0093011111 0.019743551 9.219563e-39
-0.015853019 0.001131417 0.019287657 9.219563e-39
-0.016799973 -0.01579402 0.018483313 9.219563e-39
-0.016672965 -0.0092161857 0.018591193 9.219563e-39
-0.015651233 -0.0111023 0.019459054 9.219563e-39
-0.01539249 -0.0093396269 0.019678831 9.219563e-39
-0.015886696 0.0029479712 0.01925905 9.219563e-39
-0.015529045 0.0075093657 0.01956284 9.219563e-39
-0.015307231 0.0043843435 0.019751251 9.219563e-39
-0.016924368 -0.012787954 0.018377651 9.219563e-39
-0.015469741 -0.0021283419 0.019613214 9.219563e-39
-0.016836682 0.010239492 0.018452132 9.219563e-39
-0.016200669 0.013143444 0.018992363 9.219563e-39
-0.017084515 0.0093653779 0.018241622 9.219563e-39
-0.016256986 0.0037658878 0.018944526 9.219563e-39
-0.016227448 0.0074723708 0.018969616 9.219563e-39
-0.016381234 0.011552563 0.01883899 9.219563e-39
-0.017164275 0.0032080687 0.018173873 9.219563e-39
-0.016931549 0.013554573 0.018371552 9.219563e-39
-0.016811747 -0.00062852277 0.018473312 9.219563e-39
-0.016832821 0.012342541 0.018455412 9.219563e-39
-0.016484089 -0.0032550148 0.018751625 9.219563e-39
-0.01677756 -0.0043247249 0.018502351 9.219563e-39
-0.015899934 0.0080859764 0.019247808 9.219563e-39
-0.015508153 0.014697418 0.019580588 9.219563e-39
-0.016368782 0.0096106399 0.018849567 9.219563e-39
-0.016754234 0.014249022 0.018522164 9.219563e-39
-0.016019825 0.0058041266 0.019145971 9.219563e-39
-0.016545834 0.0027441522 0.018699178 9.219563e-39
-0.016852355 0.0051003657 0.01843882 9.219563e-39
-0.017177183 0.0042385082 0.018162908 9.219563e-39
-0.016905218 -0.0076516941 0.018393917 9.219563e-39
-0.015600223 0.013237596 0.019502383 9.219563e-39
-0.01706114 -0.010447211 0.018261475 9.219563e-39
-0.016910907 0.0061174277 0.018389085 9.219563e-39
-0.015742386 0.015963534 0.019381629 9.219563e-39
-0.016384223 0.006675194 0.018836452 9.219563e-39
-0.015894666 0.0089776209 0.019252282 9.219563e-39
-0.017186066 0.0085512865 0.018155364 9.219563e-39
-0.016949462 0.0018203281 0.018356336 9.219563e-39
-0.0169839 0.00068978069 0.018327083 9.219563e-39
-0.016054695 0.0044323974 0.019116353 9.219563e-39
-0.015622291 0.0121946 0.019483639 9.219563e-39
-0.016538536 -0.0013641582 0.018705377 9.219563e-39
-0.01690617 0.015212657 0.018393107 9.219563e-39
-0.016045813 0.013840935 0.019123899 9.219563e-39
-0.01664409 -0.006549004 0.018615719 9.219563e-39
-0.016573869 7.8772828e-05 0.018675366 9.219563e-39
-0.015906613 0.010781424 0.019242134 9.219563e-39
-0.016554274 0.0082157636 0.018692011 9.219563e-39
-0.017139465 -0.014438096 0.018194947 9.219563e-39
-0.016085796 0.01462917 0.019089935 9.219563e-39
-0.016454069 -0.002255758 0.018777123 9.219563e-39
-0.017826099 -0.014297451 0.01748104 9.219563e-39
-0.017428249 0.0056659621 0.017901029 9.219563e-39
-0.017859519 -0.006708744 0.017445762 9.219563e-39
-0.018161161 -0.015298282 0.017127331 9.219563e-39
-0.017474467 -0.0021353599 0.017852241 9.219563e-39
-0.018336568 -0.011527477 0.016942164 9.219563e-39
-0.017649727 -0.015010414 0.017667226 9.219563e-39
-0.01827416 -0.0086907493 0.017008044 9.219563e-39
-0.018008446 -0.0033061854 0.017288545 9.219563e-39
-0.017492145 -0.0012189059 0.017833579 9.219563e-39
-0.017913982 -0.0079514142 0.017388266 9.219563e-39
-0.018373467 -0.013923719 0.01690321 9.219563e-39
-0.018278228 -0.010587991 0.017003749 9.219563e-39
-0.017211996 -0.0032523989 0.018129317 9.219563e-39
-0.017675402 -0.010475236 0.017640123 9.219563e-39
-0.018105218 -0.00079795253 0.017186388 9.219563e-39
-0.017725371 0.00073366967 0.017587373 9.219563e-39
-0.017844062 -0.012453419 0.017462077 9.219563e-39
-0.018914822 -0.014479806 0.016331729 9.219563e-39
-0.017268792 -0.0066226027 0.018069362 9.219563e-39
-0.017917274 -0.0092860349 0.017384792 9.219563e-39
-0.017642669 -0.0047449786 0.017674677 9.219563e-39
-0.018388484 -0.0097384518 0.016887359 9.219563e-39
-0.017240811 -0.008608575 0.018098898 9.219563e-39
-0.017489903 -0.013051929 0.017835947 9.219563e-39
-0.01725013 0.0075218431 0.018089063 9.219563e-39
-0.017381182 -0.012079696 0.017950717 9.219563e-39
-0.01775535 0.0024136275 0.017555725 9.219563e-39
-0.01813731 -0.0058395988 0.017152511 9.219563e-39
-0.017205104 -0.0052870028 0.018136594 9.219563e-39
-0.017339448 0.0067032827 0.017994773 9.219563e-39
-0.018146127 -0.0041472912 0.017143201 9.219563e-39
-0.018353352 -0.0073727435 0.016924445 9.219563e-39
-0.017664136 -0.011390501 0.017652016 9.219563e-39
-0.017235789 0.010980153 0.018104201 9.219563e-39
-0.018146964 -0.0023024336 0.017142318 9.219563e-39
-0.018748043 -0.015981415 0.016507789 9.219563e-39
-0.017779708 0.0015485904 0.017530013 9.219563e-39
-0.017335495 0.013055939 0.017998945 9.219563e-39
-0.017401837 -6.6259185e-05 0.017928911 9.219563e-39
-0.018216699 -0.01296055 0.017068703 9.219563e-39
-0.017544158 0.0048545152 0.017778672 9.219563e-39
-0.018657252 0.0059167095 0.016603634 9.219563e-39
-0.018726172 0.0090178875 0.016530879 9.219563e-39
-0.018746495 0.0019921476 0.016509423 9.219563e-39
-0.018505501 -0.0028785919 0.016763829 9.219563e-39
-0.018405424 0.0013060787 0.016869476 9.219563e-39
-0.019032987 -0.011316386 0.016206987 9.219563e-39
-0.018130403 0.011214679 0.017159801 9.219563e-39
-0.018640945 0.010651738 0.016620846 9.219563e-39
-0.018446269 0.0080481516 0.016826358 9.219563e-39
-0.018972402 0.0099070063 0.016270943 9.219563e-39
-0.017765626 0.0063028615 0.017544879 9.219563e-39
-0.017958894 0.0085481731 0.017340856 9.219563e-39
-0.017980082 0.0053566364 0.017318487 9.219563e-39
-0.017617187 0.015312077 0.017701577 9.219563e-39
-0.018937288 -0.00038660326 0.016308013 9.219563e-39
-0.01901116 0.0068788719 0.01623003 9.219563e-39
-0.017935693 0.0077065141 0.017365348 9.219563e-39
-0.017958799 0.013221215 0.017340954 9.219563e-39
-0.017310437 0.014340504 0.018025398 9.219563e-39
-0.018481264 0.0072555239 0.016789416 9.219563e-39
-0.018202078 0.015289036 0.017084138 9.219563e-39
-0.018068403 0.014608468 0.017225252 9.219563e-39
-0.017680017 0.009914306 0.01763525 9.219563e-39
-0.018404573 0.00060226442 0.016870374 9.219563e-39
-0.017980734 0.004491365 0.0173178 9.219563e-39
-0.018435132 0.012736577 0.016838115 9.219563e-39
-0.017664917 0.013805545 0.017651193 9.219563e-39
-0.018757958 -0.004619637 0.016497323 9.219563e-39
-0.018121371 0.010359432 0.017169336 9.219563e-39
-0.018723557 -0.0081383968 0.016533637 9.219563e-39
-0.017701568 0.01234495 0.0176125 9.219563e-39
-0.018624326 0.014580314 0.016638391 9.219563e-39
-0.018543951 -0.0016864052 0.01672324 9.219563e-39
-0.018667715 0.015971903 0.016592588 9.219563e-39
-0.018874023 -0.0069975299 0.016374798 9.219563e-39
-0.01884592 0.012095268 0.016404467 9.219563e-39
-0.018933773 -0.012586043 0.016311724 9.219563e-39
-0.018835504 0.0042787292 0.016415462 9.219563e-39
-0.018594265 0.0036040987 0.016670126 9.219563e-39
-0.018853368 0.002920608 0.016396603 9.219563e-39
-0.017994782 0.0035898073 0.017302971 9.219563e-39
-0.018851513 0.013350224 0.016398562 9.219563e-39
-0.018912241 -0.003592504 0.016334454 9.219563e-39
-0.018657792 -0.006086234 0.016603062 9.219563e-39
-0.01927493 0.0023860035 0.015894189 9.219563e-39
-0.019877737 -0.006778379 0.015101166 9.219563e-39
-0.019678703 0.0011764197 0.015363005 9.219563e-39
-0.019565584 -0.009707463 0.015511817 9.219563e-39
-0.019976247 -0.010998684 0.01497157 9.219563e-39
-0.019254366 -0.01328665 0.015921241 9.219563e-39
-0.019681605 0.0029987639 0.015359187 9.219563e-39
-0.02055138 -0.014238577 0.014214956 9.219563e-39
-0.019148493 -0.0076640495 0.016060522 9.219563e-39
-0.019983103 -0.013423847 0.01496255 9.219563e-39
-0.019340357 0.0061865374 0.015808115 9.219563e-39
-0.019631427 0.0019279454 0.015425199 9.219563e-39
-0.019147947 -0.0092647858 0.016061241 9.219563e-39
-0.019202145 0.0076135779 0.015989941 9.219563e-39
-0.019566916 -0.014840631 0.015510065 9.219563e-39
-0.019164806 -0.0017804328 0.01603906 9.219563e-39
-0.01954749 -0.0061771735 0.015535622 9.219563e-39
-0.019991467 -0.0079857763 0.014951549 9.219563e-39
-0.019234659 -0.0055277813 0.015947165 9.219563e-39
-0.019217491 0.0012151556 0.015969751 9.219563e-39
-0.019354893 0.0046837428 0.015788993 9.219563e-39
-0.019915042 -0.012601693 0.015052089 9.219563e-39
-0.020047395 -0.0060380213 0.014877973 9.219563e-39
-0.019182408 0.00042082169 0.016015904 9.219563e-39
-0.020369694 -0.013092642 0.014453972 9.219563e-39
-0.019062361 0.00529024 0.016173832 9.219563e-39
-0.020153647 -0.014614172 0.014738192 9.219563e-39
-0.020218933 -0.015354579 0.014652306 9.219563e-39
-0.01936426 -0.014157983 0.015776671 9.219563e-39
-0.019697342 -0.0088617085 0.015338484 9.219563e-39
-0.019117603 -0.010234136 0.016101159 9.219563e-39
-0.019413153 0.0039667054 0.015712351 9.219563e-39
-0.019756706 -0.00099071884 0.015260386 9.219563e-39
-0.020630747 -0.015985234 0.014110545 9.219563e-39
-0.019660359 -0.0045340341 0.015387137 9.219563e-39
-0.019282648 -0.0031278401 0.015884034 9.219563e-39
-0.019369124 -0.01186565 0.015770271 9.219563e-39
-0.019695271 -0.0053075813 0.015341208 9.219563e-39
-0.01919017 -0.015386307 0.016005695 9.219563e-39
-0.019396661 -0.01093494 0.015734045 9.219563e-39
-0.02001252 -0.01018602 0.014923851 9.219563e-39
-0.019468326 -0.0037695824 0.015639765 9.219563e-39
-0.019735169 -0.0019468061 0.015288722 9.219563e-39
-0.019435128 -0.00040605816 0.015683439 9.219563e-39
-0.019425495 0.011649531 0.015696114 9.219563e-39
-0.019835383 0.0043087718 0.015156885 9.219563e-39
-0.0192439 0.012938892 0.015935011 9.219563e-39
-0.019951649 0.0055570574 0.01500393 9.219563e-39
-0.019894047 0.014425969 0.015079709 9.219563e-39
-0.020638704 -0.0084880358 0.014100075 9.219563e-39
-0.020280136 0.015969789 0.014571792 9.219563e-39
-0.020025766 0.0035275824 0.014906428 9.219563e-39
-0.020198131 0.0086598704 0.014679672 9.219563e-39
-0.020632343 0.00034215086 0.014108443 9.219563e-39
-0.019701608 0.0074135419 0.015332872 9.219563e-39
-0.020119093 0.0025602796 0.01478365 9.219563e-39
-0.02051162 -0.011994358 0.014267262 9.219563e-39
-0.020140445 -0.0050925664 0.01475556 9.219563e-39
-0.020395324 0.0072722971 0.014420254 9.219563e-39
-0.02015114 0.015248059 0.01474149 9.219563e-39
-0.019388136 0.01437425 0.01574526 9.219563e-39
-0.020583393 0.0035549495 0.014172842 9.219563e-39
-0.020528395 -0.0029033646 0.014245193 9.219563e-39
-0.02031517 0.011426119 0.014525699 9.219563e-39
-0.020485863 0.010115967 0.014301146 9.219563e-39
-0.020108426 0.010623835 0.014797682 9.219563e-39
-0.020098956 0.0016681813 0.014810141 9.219563e-39
-0.020046104 -0.0025678526 0.01487967 9.219563e-39
-0.020243309 0.0094100218 0.014620237 9.219563e-39
-0.019540828 0.010790108 0.015544386 9.219563e-39
-0.020156268 0.013660778 0.014734743 9.219563e-39
-0.020549547 0.01251471 0.014217366 9.219563e-39
-0.020651249 0.014079036 0.014083573 9.219563e-39
-0.020317657 0.0042882771 0.01452243 9.219563e-39
-0.019975174 0.00020566439 0.014972981 9.219563e-39
-0.020626504 -0.0020444677 0.014116126 9.219563e-39
-0.019825632 0.015992422 0.015169714 9.219563e-39
-0.0202702 -0.0013452625 0.014584862 9.219563e-39
-0.01959154 0.0084218532 0.015477672 9.219563e-39
-0.019877858 0.011935399 0.015101006 9.219563e-39
-0.020526091 -0.011222544 0.014248225 9.219563e-39
-0.01942583 0.0091892043 0.015695672 9.219563e-39
-0.020441856 -0.010046473 0.014359038 9.219563e-39
-0.020593952 0.0025743365 0.014158949 9.219563e-39
-0.02051604 -0.0005304942 0.014261447 9.219563e-39
-0.019486399 0.015103767 0.015615989 9.219563e-39
-0.020157501 -0.0041947779 0.014733123 9.219563e-39
-0.021355769 -0.0001675722 0.012926843 9.219563e-39
-0.020960541 0.0098278848 0.013583712 9.219563e-39
-0.022080446 -0.015926279 0.011722421 9.219563e-39
-0.021402095 -0.0011267641 0.012849847 9.219563e-39
-0.021715606 -0.015940195 0.01232879 9.219563e-39
-0.021107784 -0.010246255 0.013338995 9.219563e-39
-0.020973435 -0.00021182492 0.013562284 9.219563e-39
-0.02141556 -0.0020201474 0.012827469 9.219563e-39
-0.020778812 -0.015240942 0.01388575 9.219563e-39
-0.020835854 0.0016366465 0.013790946 9.219563e-39
-0.021077257 -0.0061659347 0.013389733 9.219563e-39
-0.020859985 -0.0095689958 0.013750841 9.219563e-39
-0.021145595 -0.0072230459 0.013276152 9.219563e-39
-0.021233672 0.0016179922 0.013129767 9.219563e-39
-0.02069639 0.011768537 0.014022736 9.219563e-39
-0.021066179 -0.0047199223 0.013408141 9.219563e-39
-0.021845918 -0.012909045 0.01211221 9.219563e-39
-0.021044837 0.0071655731 0.013443612 9.219563e-39
-0.021755088 -0.014433474 0.01226317 9.219563e-39
-0.021216102 0.00076985994 0.013158969 9.219563e-39
-0.021301927 -0.007968179 0.013016327 9.219563e-39
-0.021741543 -0.011930763 0.012285683 9.219563e-39
-0.021468474 -0.0042700004 0.012739526 9.219563e-39
-0.021263989 -0.014662895 0.013079381 9.219563e-39
-0.0210381 0.0023579411 0.013454811 9.219563e-39
-0.021480259 -0.010011135 0.012719939 9.219563e-39
-0.020713974 0.0052716788 0.013993512 9.219563e-39
-0.021295436 -0.0030128809 0.013027115 9.219563e-39
-0.021625586 -0.013628716 0.012478404 9.219563e-39
-0.020993052 0.0043387441 0.01352968 9.219563e-39
-0.021431444 -0.0051056901 0.01280107 9.219563e-39
-0.020713342 -0.0058664046 0.01399456 9.219563e-39
-0.020714808 -0.0069084517 0.013992123 9.219563e-39
-0.021070899 -0.0022628882 0.013400299 9.219563e-39
-0.021560399 -0.0086833853 0.012586745 9.219563e-39
-0.020875655 -0.0034025998 0.013724795 9.219563e-39
-0.021011621 -0.013396091 0.013498818 9.219563e-39
-0.02079479 0.0062208963 0.013859195 9.219563e-39
-0.020863222 -0.012407636 0.01374546 9.219563e-39
-0.020740932 0.0090919435 0.013948707 9.219563e-39
-0.020900518 -0.0014567217 0.013683475 9.219563e-39
-0.020866767 -0.0077386708 0.013739567 9.219563e-39
-0.02071595 0.0083780969 0.013990228 9.219563e-39
-0.021359526 -0.012601811 0.012920598 9.219563e-39
-0.021401158 -0.011449654 0.012851405 9.219563e-39
-0.021176415 -0.0090125753 0.013224931 9.219563e-39
-0.021062706 -0.01114878 0.013413915 9.219563e-39
-0.021784771 -0.0067726825 0.012213835 9.219563e-39
-0.021265365 0.011819546 0.013077095 9.219563e-39
-0.021892792 -0.010005115 0.012034304 9.219563e-39
-0.021372961 0.0034721205 0.01289827 9.219563e-39
-0.021598864 0.012317662 0.012522814 9.219563e-39
-0.020947289 0.011139643 0.013605739 9.219563e-39
-0.021518124 0.015117099 0.012657006 9.219563e-39
-0.021746311 -0.0080017 0.012277758 9.219563e-39
-0.022061666 0.0077842753 0.011753634 9.219563e-39
-0.021902783 0.0016857141 0.012017701 9.219563e-39
-0.021702897 0.0082109934 0.012349914 9.219563e-39
-0.021797815 1.8323037e-06 0.012192157 9.219563e-39
-0.022027966 -0.01372692 0.011809644 9.219563e-39
-0.020736281 0.015413333 0.013956437 9.219563e-39
-0.021955123 -0.0052936259 0.011930708 9.219563e-39
-0.022036068 0.0064752027 0.011796177 9.219563e-39
-0.021334922 0.0095541859 0.012961491 9.219563e-39
-0.0214191 0.0056547346 0.012821584 9.219563e-39
-0.021839779 -0.0018369056 0.012122411 9.219563e-39
-0.021969303 0.010913478 0.011907141 9.219563e-39
-0.021654436 0.0028766245 0.012430453 9.219563e-39
-0.021177147 0.014227736 0.013223712 9.219563e-39
-0.021824155 0.010066564 0.012148378 9.219563e-39
-0.02170104 0.011489854 0.012352999 9.219563e-39
-0.021901404 -0.0037289874 0.01201999 9.219563e-39
-0.021747293 0.0036128634 0.012276124 9.219563e-39
-0.02101339 0.015993064 0.013495879 9.219563e-39
-0.021690127 0.0071282308 0.012371135 9.219563e-39
-0.021039635 0.013524531 0.01345226 9.219563e-39
-0.022043783 0.0091805831 0.011783356 9.219563e-39
-0.021201035 0.0062952996 0.013184012 9.219563e-39
-0.021738559 0.014043761 0.012290643 9.219563e-39
-0.021219485 0.0080542145 0.013153347 9.219563e-39
-0.021466041 0.0044133551 0.012743567 9.219563e-39
-0.021815997 0.0058597233 0.012161939 9.219563e-39
-0.02136635 0.010297584 0.012909254 9.219563e-39
-0.021934941 0.0047404333 0.011964252 9.219563e-39
-0.021407634 0.013432085 0.012840643 9.219563e-39
-0.020903299 0.014737493 0.013678851 9.219563e-39
-0.022085743 -0.015058981 0.011713619 9.219563e-39
-0.022011841 0.012648427 0.011836443 9.219563e-39
-0.02158965 0.0089305388 0.012538129 9.219563e-39
-0.022014434 0.014760783 0.011832136 9.219563e-39
-0.021739831 -0.0030784488 0.012288528 9.219563e-39
-0.02215571 -0.0093030473 0.011563415 9.219563e-39
-0.022868495 -0.015637882 0.010022736 9.219563e-39
-0.022411149 -0.0085438499 0.011011283 9.219563e-39
-0.022948151 -0.013887873 0.0098505579 9.219563e-39
-0.022945443 -0.008537977 0.0098564122 9.219563e-39
-0.02208982 -0.0059468742 0.011705833 9.219563e-39
-0.022371473 -0.0030915451 0.011097045 9.219563e-39
-0.022683794 -0.0065153125 0.010421963 9.219563e-39
-0.022661949 -0.004247312 0.010469183 9.219563e-39
-0.022158494 -0.012413673 0.011557395 9.219563e-39
-0.022328215 0.0083224932 0.011190544 9.219563e-39
-0.022231391 0.00050210475 0.011399828 9.219563e-39
-0.022770403 -0.0033301448 0.010234761 9.219563e-39
-0.02272038 -0.01220405 0.010342885 9.219563e-39
-0.022125253 -0.0044298135 0.011629244 9.219563e-39
-0.022506138 -0.0055202693 0.010805964 9.219563e-39
-0.022339758 -0.001601452 0.011165595 9.219563e-39
-0.022448389 -0.0072587971 0.010930789 9.219563e-39
-0.022551265 -0.010728741 0.010708426 9.219563e-39
-0.022375636 0.0033882167 0.011088043 9.219563e-39
-0.022285419 0.0053652297 0.011283048 9.219563e-39
-0.022434255 -0.011819196 0.010961339 9.219563e-39
-0.022222612 0.010426993 0.011418803 9.219563e-39
-0.02299317 -0.012513694 0.0097532514 9.219563e-39
-0.0223343 -0.0099750152 0.011177391 9.219563e-39
-0.022287119 0.0045607882 0.011279372 9.219563e-39
-0.022466963 -5.5481029e-05 0.010890642 9.219563e-39
-0.022496678 -0.014444117 0.010826414 9.219563e-39
-0.022114102 0.0037871373 0.011653349 9.219563e-39
-0.02224448 -0.011159608 0.011371539 9.219563e-39
-0.022386892 -0.015336457 0.011063715 2.3418052e-38
-0.02278802 -0.005004121 0.010196682 9.219563e-39
-0.022792399 -0.0092679849 0.010187214 9.219563e-39
-0.023035381 -0.014726467 0.0096620126 9.219563e-39
-0.022720767 -0.01002769 0.010342047 9.219563e-39
-0.022372285 -0.0037921083 0.011095288 9.219563e-39
-0.022336252 -0.0064667948 0.011173172 9.219563e-39
-0.022231881 -0.00073445658 0.01139877 9.219563e-39
-0.022660825 -0.013233305 0.010471611 9.219563e-39
-0.022329031 -0.013546832 0.01118878 9.219563e-39
-0.022160847 0.0028229279 0.011552311 9.219563e-39
-0.022325974 0.0013091451 0.01119539 9.219563e-39
-0.022540912 0.0026851115 0.010730801 9.219563e-39
-0.022087967 -0.0076713199 0.011709838 9.219563e-39
-0.02291603 -0.00016259766 0.0099199899 9.219563e-39
-0.02265502 0.013627532 0.010484159 9.219563e-39
-0.023206355 0.010587591 0.0092924545 9.219563e-39
-0.023112081 -0.0013431892 0.009496226 9.219563e-39
-0.023186 0.00046768246 0.009336452 9.219563e-39
-0.022985352 -0.0071233991 0.0097701512 9.219563e-39
-0.022681128 0.0082511548 0.010427725 9.219563e-39
-0.023191631 0.0076849065 0.0093242796 9.219563e-39
-0.022696417 0.0038936511 0.010394679 9.219563e-39
-0.022536548 0.010733874 0.010740236 9.219563e-39
-0.022516891 0.015311968 0.010782721 9.219563e-39
-0.022577845 0.012098236 0.010650974 9.219563e-39
-0.022408154 0.0095938034 0.011017758 9.219563e-39
-0.023027331 0.0056056902 0.0096794153 9.219563e-39
-0.022977233 0.014324564 0.0097876992 9.219563e-39
-0.022303715 0.013564881 0.011243499 9.219563e-39
-0.023178171 0.0012223136 0.0093533723 9.219563e-39
-0.023121133 0.0044588479 0.0094766608 9.219563e-39
-0.022782296 -0.00084400486 0.010209056 9.219563e-39
-0.022757247 0.0046019629 0.010263194 9.219563e-39
-0.022467164 0.0062032933 0.010890208 9.219563e-39
-0.022452446 0.0071873651 0.010922019 9.219563e-39
-0.022335704 0.011496725 0.011174357 9.219563e-39
-0.023000201 0.0088309264 0.0097380551 9.219563e-39
-0.023100246 0.0031424973 0.0095218094 9.219563e-39
-0.022673599 0.00092233915 0.010443999 9.219563e-39
-0.022942526 0.012470171 0.0098627191 9.219563e-39
-0.023006605 -0.0040562856 0.0097242109 9.219563e-39
-0.022858975 0.0062335501 0.010043313 9.219563e-39
-0.023152361 -0.0022261541 0.0094091613 9.219563e-39
-0.023130644 -0.0078414828 0.0094561009 9.219563e-39
-0.022781741 0.0074249669 0.010210253 9.219563e-39
-0.02301847 0.0018321446 0.0096985642 9.219563e-39
-0.023040237 -0.0062559783 0.0096515156 9.219563e-39
-0.023134792 0.013687401 0.009447135 9.219563e-39
-0.023148322 -0.010918151 0.0094178915 9.219563e-39
-0.022977864 0.011135647 0.0097863348 9.219563e-39
-0.022857863 -0.0017317233 0.010045716 9.219563e-39
-0.022610847 0.008986651 0.010579639 9.219563e-39
-0.022988377 0.0099965846 0.0097636105 9.219563e-39
-0.022487843 0.012851533 0.01084551 9.219563e-39
-0.023208255 -0.0089100115 0.0092883473 9.219563e-39
-0.023070171 0.01513139 0.0095868129 9.219563e-39
-0.022528712 0.014511906 0.010757172 9.219563e-39
-0.023352211 -0.0036526308 0.0088741044 9.219563e-39
-0.023624325 -0.013448444 0.0080664745 9.219563e-39
-0.023621354 -0.0034381684 0.0080752913 9.219563e-39
-0.023473565 -0.0066578165 0.0085139303 9.219563e-39
-0.023231281 -0.0052303723 0.0092330286 9.219563e-39
-0.023547161 -0.0073931343 0.0082954941 9.219563e-39
-0.023744466 -0.012221327 0.0077098957 9.219563e-39
-0.023487478 -0.0022369039 0.0084726317 9.219563e-39
-0.023726139 -0.0026579383 0.0077642892 9.219563e-39
-0.023399329 -0.0014959 0.0087342635 9.219563e-39
-0.023714954 -0.010946942 0.0077974857 9.219563e-39
-0.02332446 -0.0028283196 0.0089564724 9.219563e-39
-0.023353284 -0.00042679042 0.008870923 9.219563e-39
-0.023735503 -0.01013191 0.0077364957 9.219563e-39
-0.0234199 0.00644262 0.008673206 9.219563e-39
-0.023402993 -0.0093710152 0.0087233894 9.219563e-39
-0.023608202 -0.014933147 0.0081143249 9.219563e-39
-0.023686541 -0.0091284597 0.0078818146 9.219563e-39
-0.023576174 -0.0058955965 0.0082093868 9.219563e-39
-0.023240829 -0.010128184 0.0092046913 9.219563e-39
-0.023513347 -0.011573886 0.0083958572 9.219563e-39
-0.023399334 0.00326266 0.0087342458 9.219563e-39
-0.023807133 -0.014126845 0.0075239008 9.219563e-39
-0.023623437 -0.00038165619 0.0080691101 9.219563e-39
-0.023804741 -0.0062884968 0.0075309975 9.219563e-39
-0.023706367 -0.0083312783 0.0078229737 9.219563e-39
-0.023689674 -0.0012659241 0.0078725191 9.219563e-39
-0.023264281 0.014390161 0.0091350805 9.219563e-39
-0.023487557 -0.010190031 0.0084724007 9.219563e-39
-0.023286516 0.011285593 0.0090690935 9.219563e-39
-0.023280989 0.012217305 0.0090854941 9.219563e-39
-0.02324168 -0.011698797 0.0092021618 9.219563e-39
-0.023517888 0.0016027176 0.00838238 9.219563e-39
-0.023340138 -0.0059919013 0.0089099426 9.219563e-39
-0.023263158 0.0093501098 0.0091384156 9.219563e-39
-0.023633301 -0.0047250353 0.0080398293 9.219563e-39
-0.023276128 0.0024952805 0.009099924 9.219563e-39
-0.023384497 -0.014319567 0.0087782843 9.219563e-39
-0.023339201 -0.013566024 0.0089127235 9.219563e-39
-0.023368755 0.0041374313 0.008825005 9.219563e-39
-0.023332527 -0.01521825 0.0089325327 9.219563e-39
-0.023861203 -0.015365148 0.0073634186 9.219563e-39
-0.023354031 0.0051278607 0.0088687045 9.219563e-39
-0.023368824 -0.012595604 0.0088248011 9.219563e-39
-0.023832478 0.003337495 0.0074486788 9.219563e-39
-0.023506034 0.011587823 0.0084175598 9.219563e-39
-0.023654576 0.0063997661 0.0079766847 9.219563e-39
-0.023669254 0.0054977657 0.007933124 9.219563e-39
-0.023820832 -0.0052448465 0.0074832388 9.219563e-39
-0.024029151 -0.0034409184 0.0068649529 9.219563e-39
-0.023334039 0.015578073 0.0089280428 9.219563e-39
-0.024084844 -0.012298544 0.0066996547 9.219563e-39
-0.024013218 -0.010730578 0.0069122417 9.219563e-39
-0.02387445 0.006875962 0.0073240991 9.219563e-39
-0.023951905 0.0050607603 0.0070942184 9.219563e-39
-0.023649879 0.0026522507 0.0079906313 9.219563e-39
-0.023938222 -0.0086120227 0.0071348269 9.219563e-39
-0.023926232 0.0092043392 0.0071704146 9.219563e-39
-0.023564449 0.014102981 0.0082441848 9.219563e-39
-0.023513559 0.0093808426 0.0083952276 9.219563e-39
-0.023934301 -0.0043418524 0.0071464661 9.219563e-39
-0.023676544 0.0005061804 0.0079114866 9.219563e-39
-0.023988893 0.012702091 0.006984435 9.219563e-39
-0.023571216 0.0075151003 0.0082241027 9.219563e-39
-0.02408517 -0.01324003 0.0066986862 9.219563e-39
-0.023750575 0.0098193232 0.0076917605 9.219563e-39
-0.024020255 -0.0011079924 0.0068913568 9.219563e-39
-0.023943689 0.010968832 0.0071186018 9.219563e-39
-0.023781704 0.014621403 0.0075993738 9.219563e-39
-0.023903238 0.0020681841 0.0072386586 9.219563e-39
-0.023956919 -0.0073109418 0.0070793335 9.219563e-39
-0.023489084 0.013322806 0.008467868 9.219563e-39
-0.024020096 -0.0056994483 0.0068918248 9.219563e-39
-0.023543386 0.01512568 0.0083067035 9.219563e-39
-0.023832057 0.0078430614 0.0074499273 9.219563e-39
-0.024009671 -0.0002106078 0.0069227675 9.219563e-39
-0.023765411 0.0042562676 0.0076477304 9.219563e-39
-0.02383244 0.0010962213 0.0074487864 9.219563e-39
-0.023634432 0.012397002 0.0080364756 9.219563e-39
-0.023963172 0.015191993 0.007060776 9.219563e-39
-0.023616282 0.0086674448 0.0080903461 9.219563e-39
-0.023813836 0.011670801 0.0075040055 9.219563e-39
-0.024019685 0.0085629076 0.0068930443 9.219563e-39
-0.023876792 0.0061328318 0.0073171505 9.219563e-39
-0.023493784 0.010750516 0.0084539223 9.219563e-39
-0.024037965 -0.0094218478 0.006838792 9.219563e-39
-0.024425214 -0.0074320161 0.0051596328 9.219563e-39
-0.024238387 0.0070327078 0.0060082753 9.219563e-39
-0.024203641 -0.0061206906 0.0061661 9.219563e-39
-0.024633765 -0.014286404 0.0042123157 9.219563e-39
-0.024325481 -0.0031633116 0.0056126635 9.219563e-39
-0.024144314 0.011173942 0.0064355838 9.219563e-39
-0.024144236 -0.0043211132 0.0064359452 9.219563e-39
-0.024365285 -0.0081609506 0.0054318504 9.219563e-39
-0.024221919 -0.0018057709 0.006083074 9.219563e-39
-0.024209438 -0.00091085717 0.0061397702 9.219563e-39
-0.024293952 0.0036275422 0.0057558748 9.219563e-39
-0.024433248 -0.010862543 0.0051231468 9.219563e-39
-0.024604954 -0.013281274 0.0043431907 9.219563e-39
-0.024443092 -0.013843633 0.0050784298 9.219563e-39
-0.024141766 0.009422943 0.0064471625 9.219563e-39
-0.024158847 -0.0075811874 0.0063695726 9.219563e-39
-0.024094915 0.013460909 0.0066599734 9.219563e-39
-0.02425394 -0.0094214082 0.0059376219 9.219563e-39
-0.024091402 -0.011563203 0.0066759302 9.219563e-39
-0.024238247 0.0028477919 0.0060089072 9.219563e-39
-0.024427796 -0.012910158 0.005147907 9.219563e-39
-0.024130929 -0.0139758 0.0064963903 9.219563e-39
-0.024268197 -0.012421658 0.0058728652 9.219563e-39
-0.024205986 0.006066585 0.0061554476 9.219563e-39
-0.024292476 -0.014448592 0.0057625785 9.219563e-39
-0.024361497 -0.0015016685 0.0054490622 9.219563e-39
-0.024398265 -0.0053388719 0.0052820481 9.219563e-39
-0.024317464 0.00035412476 0.0056490805 9.219563e-39
-0.024125617 0.0020063333 0.0065205148 9.219563e-39
-0.024311157 0.001992607 0.0056777243 9.219563e-39
-0.024351442 -0.0039121425 0.0054947347 9.219563e-39
-0.024401471 -0.0090120779 0.0052674878 9.219563e-39
-0.024399534 -0.015456441 0.0052762874 9.219563e-39
-0.02416363 -0.015108274 0.0063478448 9.219563e-39
-0.024096943 0.0032430843 0.0066507608 9.219563e-39
-0.024133788 -0.0027508005 0.0064833974 9.219563e-39
-0.024121542 0.0046678716 0.0065390323 9.219563e-39
-0.024262385 -0.01088116 0.0058992645 9.219563e-39
-0.024126021 0.0076252273 0.0065186792 9.219563e-39
-0.024179319 -0.0053321836 0.0062765814 9.219563e-39
-0.024268312 -0.0068017654 0.0058723427 9.219563e-39
-0.024155049 -0.010098081 0.0063868267 9.219563e-39
-0.024244932 0.001288027 0.0059785377 9.219563e-39
-0.024497453 -0.0024900627 0.0048315036 9.219563e-39
-0.02459731 0.001120979 0.0043779118 9.219563e-39
-0.02457159 -0.0083893491 0.0044947434 9.219563e-39
-0.024657959 0.0032857175 0.0041024238 9.219563e-39
-0.024546262 0.0045947232 0.0046097958 9.219563e-39
-0.024521949 -0.0060433489 0.0047202343 9.219563e-39
-0.024298724 0.0091592204 0.0057341992 9.219563e-39
-0.024321558 0.012061422 0.0056304778 9.219563e-39
-0.024503363 4.7881353e-05 0.0048046573 9.219563e-39
-0.024137249 0.014560846 0.00646768 9.219563e-39
-0.024383936 0.014270274 0.0053471331 9.219563e-39
-0.024658827 -0.012304206 0.0040984778 9.219563e-39
-0.024410151 0.015840521 0.0052280575 9.219563e-39
-0.024581457 -0.01057711 0.0044499249 9.219563e-39
-0.024559069 -0.0067943749 0.0045516146 9.219563e-39
-0.024304753 0.0098711606 0.0057068169 9.219563e-39
-0.024184966 0.015734386 0.0062509323 9.219563e-39
-0.024593502 -0.0076383408 0.0043952046 9.219563e-39
-0.024565509 -0.0014183624 0.004522366 9.219563e-39
-0.0243099 0.00481351 0.0056834379 9.219563e-39
-0.024494421 0.0091906218 0.0048452765 9.219563e-39
-0.024537016 -0.0040045632 0.0046517914 9.219563e-39
-0.024457684 0.0038490538 0.0050121462 9.219563e-39
-0.024643259 0.014708644 0.0041691987 9.219563e-39
-0.024297364 0.0080964798 0.0057403813 9.219563e-39
-0.024513349 0.012056493 0.0047592982 9.219563e-39
-0.024433864 0.0010798424 0.0051203473 9.219563e-39
-0.024583543 0.0057838066 0.0044404473 9.219563e-39
-0.024501875 0.01052544 0.0048114131 9.219563e-39
-0.02466234 0.0040486734 0.0040825233 9.219563e-39
-0.02466871 0.0019957602 0.004053589 9.219563e-39
-0.024486899 0.013123003 0.0048794346 9.219563e-39
-0.024489416 0.0068143941 0.0048680105 9.219563e-39
-0.024640685 0.0070079919 0.00418089 9.219563e-39
-0.024486521 0.0031247728 0.0048811543 9.219563e-39
-0.024461875 -0.00078576547 0.0049931132 9.219563e-39
-0.024187114 0.012448356 0.0062411721 9.219563e-39
-0.02465334 -0.015042759 0.0041234042 9.219563e-39
-0.024549611 -0.0047990712 0.004594577 9.219563e-39
-0.024375273 0.015072525 0.0053864885 9.219563e-39
-0.024611676 -0.0093229041 0.0043126596 9.219563e-39
-0.024406387 0.0061675799 0.0052451557 9.219563e-39
-0.024352148 0.011264811 0.0054915273 9.219563e-39
-0.024463745 0.0018923329 0.0049846121 9.219563e-39
-0.024321185 0.013214216 0.0056321756 9.219563e-39
-0.024466423 0.0080149882 0.0049724458 9.219563e-39
-0.024741581 -0.010680498 0.0033926477 9.219563e-39
-0.024682248 0.011407555 0.0039383397 9.219563e-39
-0.024784727 -0.0058620092 0.0029958261 9.219563e-39
-0.024759276 -7.88908e-05 0.0032299049 9.219563e-39
-0.024724308 -0.01575671 0.0035515043 9.219563e-39
-0.024890253 -0.014164478 0.0020252904 9.219563e-39
-0.024785275 -0.014295851 0.0029907841 9.219563e-39
-0.0246986 -0.0063079274 0.0037879501 9.219563e-39
-0.024798812 -0.012825302 0.0028662917 9.219563e-39
-0.024720676 -0.0090164095 0.0035849176 9.219563e-39
-0.024798943 0.00097267667 0.0028650935 9.219563e-39
-0.024674146 0.00023643239 0.0040128627 9.219563e-39
-0.024884194 -0.010931524 0.0020810219 9.219563e-39
-0.024736315 0.006373995 0.0034410811 9.219563e-39
-0.024797764 -0.0041714618 0.0028759369 9.219563e-39
-0.024819737 -0.0088799177 0.0026738383 9.219563e-39
-0.024761731 -0.0072204308 0.003207335 9.219563e-39
-0.024674108 0.0050953287 0.0040132073 9.219563e-39
-0.024771081 -0.000799831 0.0031213225 9.219563e-39
-0.024718184 -0.01296399 0.0036078342 9.219563e-39
-0.024876317 -0.011971643 0.0021534672 9.219563e-39
-0.024680007 0.013774849 0.0039589461 9.219563e-39
-0.024831496 -0.0099329539 0.0025656903 9.219563e-39
-0.024693793 0.0098558478 0.0038321628 9.219563e-39
-0.024806641 -0.0080809342 0.0027942793 9.219563e-39
-0.024717148 0.0010271224 0.0036173626 9.219563e-39
-0.024695313 -0.0029177265 0.0038181795 9.219563e-39
-0.024762783 0.0027432356 0.0031976472 9.219563e-39
-0.024713011 -0.0021583633 0.0036554032 9.219563e-39
-0.024740458 -0.012117555 0.0034029821 9.219563e-39
-0.024746334 -0.015045827 0.0033489289 9.219563e-39
-0.024755698 0.0054717744 0.0032628097 9.219563e-39
-0.024759909 -0.0048037805 0.0032240862 9.219563e-39
-0.024709394 0.0085149156 0.003688674 9.219563e-39
-0.024789335 -0.0018787431 0.0029534507 9.219563e-39
-0.02471664 -0.0038107326 0.0036220325 9.219563e-39
-0.024791935 -0.011340392 0.0029295392 9.219563e-39
-0.024681227 -0.011358363 0.0039477255 9.219563e-39
-0.024701029 -0.0054721534 0.0037656042 9.219563e-39
-0.024917504 -0.012683058 0.0017746743 9.219563e-39
-0.024844982 -0.015105584 0.0024416605 9.219563e-39
-0.024796728 -0.0032692107 0.0028854629 9.219563e-39
-0.024906555 -0.010141727 0.0018753588 9.219563e-39
-0.024688601 -0.0099566346 0.0038799092 9.219563e-39
-0.02494671 -0.0043339492 0.0015060612 9.219563e-39
-0.024710417 0.012611669 0.0036792671 9.219563e-39
-0.024958674 0.0086462256 0.001396028 9.219563e-39
-0.024929656 -0.0030773273 0.0016629129 9.219563e-39
-0.024761003 0.010648853 0.0032140319 9.219563e-39
-0.024788098 0.014357042 0.0029648189 9.219563e-39
-0.024834756 0.013560768 0.0025357178 9.219563e-39
-0.024825472 0.0078224316 0.0026210977 9.219563e-39
-0.02494316 0.0029056061 0.0015387065 9.219563e-39
-0.024850342 0.0027314092 0.0023923523 9.219563e-39
-0.02491386 -0.007047954 0.0018081767 9.219563e-39
-0.02491392 0.015498946 0.0018076279 9.219563e-39
-0.024771813 0.0091926828 0.0031145951 9.219563e-39
-0.024832208 0.0097724702 0.0025591478 9.219563e-39
-0.024958219 -0.014937103 0.0014002104 9.219563e-39
-0.024893945 0.00099435961 0.0019913414 9.219563e-39
-0.024839893 0.0061910222 0.0024884674 9.219563e-39
-0.024916373 0.013054841 0.001785074 9.219563e-39
-0.024885327 0.0052848081 0.0020706102 9.219563e-39
-0.024908405 -0.0061664884 0.0018583455 9.219563e-39
-0.024896253 -0.0024238466 0.0019701137 9.219563e-39
-0.024932893 0.0021906213 0.0016331392 9.219563e-39
-0.024823071 0.011123038 0.0026431794 9.219563e-39
-0.024761261 0.013214391 0.0032116375 9.219563e-39
-0.024874803 0.008548161 0.0021673955 9.219563e-39
-0.024821483 0.0045027081 0.0026577907 9.219563e-39
-0.024887435 -0.00015191018 0.0020512147 9.219563e-39
-0.024901727 0.0075064879 0.0019197634 9.219563e-39
-0.024889689 -0.0049696853 0.002030486 9.219563e-39
-0.024762293 0.011879227 0.0032021459 9.219563e-39
-0.024748143 0.0077178152 0.0033322915 9.219563e-39
-0.024910998 0.0036702752 0.0018345037 9.219563e-39
-0.024914609 -0.0013723858 0.0018012936 9.219563e-39
-0.024789548 0.0070495568 0.0029514953 9.219563e-39
-0.024728719 0.015158106 0.0035109334 9.219563e-39
-0.024821006 0.0017407542 0.002662163 9.219563e-39
-0.024878582 0.012288326 0.0021326339 9.219563e-39
-0.024929771 -0.0078644948 0.0016618451 9.219563e-39
-0.024928277 0.01012915 0.0016755774 9.219563e-39
-0.024851704 0.014794588 0.0023798323 9.219563e-39
-0.024963301 -0.0086729592 0.00033488756 9.219563e-39
-0.024963301 -0.0035204377 9.5866875e-05 9.219563e-39
-0.024963301 -0.015536752 -0.0007373151 9.219563e-39
-0.024963301 0.0074625267 0.00068721554 9.219563e-39
-0.024963301 -0.011363339 0.0011907528 9.219563e-39
-0.024963301 0.0058566188 0.00055535033 9.219563e-39
-0.024963301 0.00011935322 4.6353391e-05 9.219563e-39
-0.024963301 -0.0010811368 0.00056320237 9.219563e-39
-0.024963301 -0.015934804 -0.0013331497 9.219563e-39
-0.024963301 -0.0049352581 0.00046405397 9.219563e-39
-0.024963301 0.0093998061 0.0012909553 9.219563e-39
-0.024963301 -0.005755309 0.00097803422 9.219563e-39
-0.024963301 0.0012273678 0.00061735028 9.219563e-39
-0.024963301 -0.014810908 -0.0011956084 9.219563e-39
-0.024963301 -0.015462847 0.00023223717 9.219563e-39
-0.024963301 0.0046142214 0.0012245661 9.219563e-39
-0.024963301 -0.0018502197 0.00093381264 9.219563e-39
-0.024963301 -0.00058298063 0.0013471495 9.219563e-39
-0.024963301 -0.0097443126 1.3229773e-05 9.219563e-39
-0.024963301 -0.0076556015 -0.00061300024 9.219563e-39
-0.024963301 -0.01577601 0.0011159377 9.219563e-39
-0.024963301 0.0020142 0.00049874996 9.219563e-39
-0.024963301 0.00012596305 0.0011847053 9.219563e-39
-0.024963301 0.0032708412 0.00078207452 9.219563e-39
-0.024963301 -0.01218464 0.0012396238 9.219563e-39
-0.024963301 -0.014457155 0.00088177726 9.219563e-39
-0.024963301 -0.014066811 -0.00028207788 9.219563e-39
-0.024963301 -0.0066293948 -0.00031078211 9.219563e-39
-0.024963301 -0.0074383342 0.00041529178 9.219563e-39
-0.024963301 -0.0023977389 4.6592286e-05 9.219563e-39
-0.024963301 -0.009565237 0.00098511495 9.219563e-39
-0.024963301 -0.0048310771 -0.00032540076 9.219563e-39
-0.024963301 -0.012689504 -5.6725246e-05 9.219563e-39
-0.024963301 -0.010995728 6.8246467e-05 9.219563e-39
-0.024963301 -0.0090289107 -0.00049975602 9.219563e-39
-0.024963301 -0.010474334 0.0005429429 9.219563e-39
-0.024963301 -0.014888478 -0.00018740338 9.219563e-39
-0.024963301 0.0067844843 0.0010689137 9.219563e-39
-0.024963301 -0.0032680489 0.00083005708 9.219563e-39
-0.024963301 -0.012371829 -0.00095311698 9.219563e-39
-0.024963301 -0.013099158 -0.0010414239 9.219563e-39
-0.024963301 0.011323819 0.0012505413 9.219563e-39
-0.024963301 -0.0082583027 0.0010642819 9.219563e-39
-0.024963301 -0.005650471 -0.0004162254 9.219563e-39
-0.024963301 -0.013214912 0.0011533586 9.219563e-39
-0.024963301 -0.0065616462 0.0010218725 9.219563e-39
-0.024963301 0.012473847 0.0013347006 9.219563e-39
-0.024963301 -0.011920433 0.00011765531 9.219563e-39
-0.024963301 0.0020582594 -0.00022140898 9.219563e-39
-0.024963301 -0.0066097137 -0.0013533443 9.219563e-39
-0.024963301 0.011213291 0.00049978262 9.219563e-39
-0.024963301 0.015305306 0.00092955306 9.219563e-39
-0.024963301 0.0048220893 0.00039817451 9.219563e-39
-0.024963301 0.0095694382 -0.0012877713 9.219563e-39
-0.024963301 -0.0028116687 -0.00060262758 9.219563e-39
-0.024963301 -0.01392145 -0.0012594353 9.219563e-39
-0.024963301 0.008533489 -1.3040009e-05 9.219563e-39
-0.024963301 0.010271129 0.00013018455 9.219563e-39
-0.024963301 0.0073425402 -0.0011902428 9.219563e-39
-0.024963301 0.01043144 -0.0012214525 9.219563e-39
-0.024963301 0.0085088499 -0.0008813733 9.219563e-39
-0.024963301 0.0062194346 -0.00020504966 9.219563e-39
-0.024963301 0.0070196036 -0.00035572681 9.219563e-39
-0.024963301 0.014567956 -0.00017103311 9.219563e-39
-0.024963301 0.011189871 -0.00050486554 9.219563e-39
-0.024963301 0.012250394 -0.00055963133 9.219563e-39
-0.024963301 -0.0017175341 -0.0003191439 9.219563e-39
-0.024963301 0.013166196 0.0010097112 9.219563e-39
-0.024963301 -0.0020068844 -0.0011289212 9.219563e-39
-0.024963301 0.0052892873 -0.00034285313 9.219563e-39
-0.024963301 0.014269327 0.0010901199 9.219563e-39
-0.024963301 0.012054556 0.00038082042 9.219563e-39
-0.024963301 -9.1830632e-05 -0.0008477231 9.219563e-39
-0.024963301 0.0034024857 -0.0001199814 9.219563e-39
-0.024963301 0.009521747 0.00037957821 9.219563e-39
-0.024963301 -0.00091499294 -0.00033543483 9.219563e-39
-0.024963301 0.0007236618 -0.00076366367 9.219563e-39
-0.024963301 0.0055316123 -0.0010258618 9.219563e-39
-0.024963301 0.015585019 -0.00073121279 9.219563e-39
-0.024963301 0.001916734 -0.0010798605 9.219563e-39
-0.024963301 0.0077700177 -0.00017880547 9.219563e-39
-0.024963301 0.0066323215 -0.0011125855 9.219563e-39
-0.024963301 -0.005823696 -0.0011617123 9.219563e-39
-0.024963301 0.014941938 -0.001233377 9.219563e-39
-0.024963301 0.015956393 0.00014475016 9.219563e-39
-0.024963301 0.013471448 -0.00072990014 9.219563e-39
-0.024963301 0.0027904306 -0.00069438241 9.219563e-39
-0.024963301 -0.0098798731 -0.0012457668 9.219563e-39
-0.024963301 0.0095056528 -0.00049024919 9.219563e-39
-0.024963301 -0.011004544 -0.00097031455 9.219563e-39
-0.024963301 0.0040968154 -0.00065019703 9.219563e-39
-0.024963301 -0.0039910055 -0.00097825832 9.219563e-39
-0.024835488 -0.009837131 -0.0025289722 9.219563e-39
-0.024908192 -0.0074622473 -0.0018603049 9.219563e-39
-0.024895303 -0.0017586423 -0.0019788574 9.219563e-39
-0.024806704 -0.015032246 -0.0027936993 9.219563e-39
-0.024896082 -0.015258122 -0.0019716932 9.219563e-39
-0.024907036 0.001880287 -0.0018709435 9.219563e-39
-0.024925875 -0.010922156 -0.0016976754 9.219563e-39
-0.024810158 -0.0016238141 -0.0027619442 9.219563e-39
-0.024799321 -0.0090990076 -0.002861605 9.219563e-39
-0.024863567 -0.0080540674 -0.0022707346 9.219563e-39
-0.02493958 -0.01169294 -0.001571637 9.219563e-39
-0.024824552 0.00031314249 -0.0026295534 9.219563e-39
-0.024947148 0.00071831967 -0.0015020295 9.219563e-39
-0.024829442 -0.0033085395 -0.0025845896 9.219563e-39
-0.024791921 -0.012113806 -0.002929677 9.219563e-39
-0.024719991 -0.015074878 -0.0035912229 9.219563e-39
-0.024803996 -0.01366505 -0.0028186133 9.219563e-39
-0.024785208 -0.0083755692 -0.0029914116 9.219563e-39
-0.024862872 -0.01235655 -0.0022771158 9.219563e-39
-0.024955321 0.0027630473 -0.0014268603 9.219563e-39
-0.024751252 -0.010935403 -0.0033037069 9.219563e-39
-0.024704715 -0.014132823 -0.0037317113 9.219563e-39
-0.02491175 0.0037431652 -0.001827582 9.219563e-39
-0.024926312 -0.0024890739 -0.0016936599 9.219563e-39
-0.024924027 0.0085580684 -0.0017146835 9.219563e-39
-0.024962986 -0.0081554856 -0.0013563572 9.219563e-39
-0.02483712 -0.010851616 -0.0025139637 9.219563e-39
-0.024746476 -0.012843768 -0.003347632 9.219563e-39
-0.0247858 -0.015998026 -0.0029859589 9.219563e-39
-0.02495599 -0.00060615054 -0.001420703 9.219563e-39
-0.024910808 -0.013114166 -0.0018362474 9.219563e-39
-0.024868386 -0.0065548765 -0.0022264067 9.219563e-39
-0.024950232 0.004925889 -0.0014736585 9.219563e-39
-0.024886936 -0.00908079 -0.0020558001 9.219563e-39
-0.024931295 -0.0049287346 -0.0016478373 9.219563e-39
-0.024810813 -0.0041746818 -0.0027559039 9.219563e-39
-0.024919014 -0.0038946674 -0.0017607702 9.219563e-39
-0.024841297 -0.0053326283 -0.0024755453 9.219563e-39
-0.02489426 0.0067863944 -0.0019884503 9.219563e-39
-0.024770521 -0.0058435383 -0.0031264783 9.219563e-39
-0.02490386 -0.014371785 -0.0019001478 9.219563e-39
-0.024888452 0.0056508686 -0.0020418605 9.219563e-39
-0.024902001 -0.0058312989 -0.0019172467 9.219563e-39
-0.024872217 0.0026184826 -0.0021911773 9.219563e-39
-0.024816483 -0.0074039586 -0.0027037645 9.219563e-39
-0.024700088 0.0060055023 -0.0037742546 9.219563e-39
-0.024823492 0.015602622 -0.0026392923 9.219563e-39
-0.024779625 0.014463516 -0.0030427547 9.219563e-39
-0.024817675 0.0018700763 -0.0026928082 9.219563e-39
-0.024890294 0.013643989 -0.0020249167 9.219563e-39
-0.02488851 0.0093756355 -0.0020413292 9.219563e-39
-0.024753472 0.0028448843 -0.0032832874 9.219563e-39
-0.024682691 0.01073228 -0.00393426 9.219563e-39
-0.024926413 0.01207661 -0.0016927297 9.219563e-39
-0.024797717 0.0055364403 -0.00287635 9.219563e-39
-0.024718687 -0.0031340083 -0.0036032044 9.219563e-39
-0.024882151 0.014809568 -0.0020998216 9.219563e-39
-0.02480912 0.0040400932 -0.0027714774 9.219563e-39
-0.024732465 0.015251208 -0.003476487 9.219563e-39
-0.024809131 -0.00077756163 -0.0027713864 9.219563e-39
-0.024693001 0.015848227 -0.0038394355 9.219563e-39
-0.024675703 0.0069809966 -0.0039985408 9.219563e-39
-0.024706032 -0.0039282781 -0.0037195929 9.219563e-39
-0.024726193 0.01392066 -0.003534171 9.219563e-39
-0.024672598 0.00011360238 -0.0040270984 9.219563e-39
-0.024688572 -0.012286209 -0.0038801769 9.219563e-39
-0.02472127 0.0052897227 -0.0035794512 9.219563e-39
-0.024724619 0.0044967765 -0.0035486426 9.219563e-39
-0.024753369 0.01113757 -0.0032842257 9.219563e-39
-0.024869056 0.011028193 -0.0022202381 9.219563e-39
-0.024866814 0.012983798 -0.0022408757 9.219563e-39
-0.024730116 -0.0022569501 -0.0034980844 9.219563e-39
-0.024877977 0.010231786 -0.0021382077 9.219563e-39
-0.024690572 -0.0048659453 -0.0038617719 9.219563e-39
-0.024678532 -0.0094578937 -0.0039725211 9.219563e-39
-0.024838274 0.0087992437 -0.0025033567 9.219563e-39
-0.02480543 0.0066358 -0.0028054216 9.219563e-39
-0.024726652 0.0020703364 -0.0035299459 9.219563e-39
-0.024763962 0.0011988642 -0.003186798 9.219563e-39
-0.024743559 0.0093865311 -0.0033744636 9.219563e-39
-0.024715191 -0.010273697 -0.0036353641 9.219563e-39
-0.024705121 0.011812033 -0.0037279639 9.219563e-39
-0.024707805 -0.00064952666 -0.0037032792 9.219563e-39
-0.024805576 0.0099450937 -0.0028040847 9.219563e-39
-0.024770824 -0.0048001809 -0.0031236892 9.219563e-39
-0.024736192 -0.0074865581 -0.0034422132 9.219563e-39
-0.024769738 0.012232576 -0.0031336753 9.219563e-39
-0.024842363 0.0047470457 -0.0024657489 9.219563e-39
-0.024849545 0.0080288211 -0.0023996851 9.219563e-39
-0.024766522 0.0078180311 -0.0031632653 9.219563e-39
-0.02477086 0.012960353 -0.0031233714 9.219563e-39
-0.024514856 -0.0021304162 -0.0047524534 9.219563e-39
-0.024350027 -0.013498198 -0.0055011669 9.219563e-39
-0.024650088 0.0090737697 -0.0041381735 9.219563e-39
-0.024591165 -0.0055911881 -0.004405824 9.219563e-39
-0.024346953 -0.0020199867 -0.0055151279 9.219563e-39
-0.024250291 -0.0094433241 -0.0059542009 9.219563e-39
-0.024623876 0.01338337 -0.0042572399 9.219563e-39
-0.024164377 -0.015575483 -0.0063444553 9.219563e-39
-0.024484117 -0.015074212 -0.0048920787 9.219563e-39
-0.024603596 0.0019780351 -0.0043493556 9.219563e-39
-0.024665602 0.0038748407 -0.0040677059 9.219563e-39
-0.024304241 -0.011907521 -0.005709142 9.219563e-39
-0.024512557 -0.0071040797 -0.0047628907 9.219563e-39
-0.024348922 -0.0074478779 -0.0055061812 9.219563e-39
-0.024513064 -0.012347776 -0.0047605932 9.219563e-39
-0.024331832 -0.010253437 -0.0055838097 9.219563e-39
-0.024575671 -0.013770736 -0.004476204 9.219563e-39
-0.024409261 -0.0093294159 -0.0052321032 9.219563e-39
-0.024373211 -0.0038452183 -0.0053958567 9.219563e-39
-0.024629012 -0.0087804757 -0.0042339135 9.219563e-39
-0.024324331 -0.0086513255 -0.0056178803 9.219563e-39
-0.02436542 -0.0012212142 -0.0054312479 9.219563e-39
-0.024294849 -0.01513878 -0.0057517998 9.219563e-39
-0.024182269 -0.013603833 -0.0062631848 9.219563e-39
-0.024581924 0.0012385158 -0.0044478043 9.219563e-39
-0.024530392 0.0065946607 -0.0046818769 9.219563e-39
-0.024564821 -0.010197475 -0.0045254892 9.219563e-39
-0.024490276 -9.4836825e-05 -0.0048640971 9.219563e-39
-0.024567463 0.0082785068 -0.0045134886 9.219563e-39
-0.024295798 -0.0056106052 -0.0057474929 9.219563e-39
-0.024658984 -0.013006252 -0.0040977723 9.219563e-39
-0.024483161 -0.0080241151 -0.0048964173 9.219563e-39
-0.024460685 0.0023409997 -0.0049985172 9.219563e-39
-0.024628812 -0.0078050396 -0.0042348169 9.219563e-39
-0.024505215 -0.0031280341 -0.0047962442 9.219563e-39
-0.024347063 -0.011137286 -0.0055146269 9.219563e-39
-0.024319932 -0.0067187087 -0.005637865 9.219563e-39
-0.024404451 -0.0048013818 -0.0052539525 9.219563e-39
-0.024587402 -0.011610072 -0.004422918 9.219563e-39
-0.024493521 -0.010925207 -0.0048493594 9.219563e-39
-0.024361577 -0.014230031 -0.0054486999 9.219563e-39
-0.024657421 -0.006296718 -0.0041048676 9.219563e-39
-0.024562815 -0.0041595199 -0.0045346031 9.219563e-39
-0.024644379 -0.0015531078 -0.0041641118 9.219563e-39
-0.024654096 0.0030069007 -0.0041199708 9.219563e-39
-0.024191881 -0.012830993 -0.0062195207 9.219563e-39
-0.024319505 -0.00012970969 -0.0056398027 9.219563e-39
-0.024464572 0.015935978 -0.004980857 9.219563e-39
-0.024160469 0.00067073194 -0.0063622091 9.219563e-39
-0.024460342 0.0089590345 -0.0050000744 9.219563e-39
-0.02412457 -0.010291897 -0.0065252739 9.219563e-39
-0.024094153 -0.0029025031 -0.0066634398 9.219563e-39
-0.024372797 0.008133621 -0.0053977291 9.219563e-39
