ply
format ascii 1.0
comment PCL generated
element vertex 1283
property float x
property float y
property float z
element camera 0
property float view_px
property float view_py
property float view_pz
property float x_axisx
property float x_axisy
property float x_axisz
property float y_axisx
property float y_axisy
property float y_axisz
property float z_axisx
property float z_axisy
property float z_axisz
property float focal
property float scalex
property float scaley
property float centerx
property float centery
property int viewportx
property int viewporty
property float k1
property float k2
end_header
0.0038950325 0.0044999998 0.078546651
-0.0040226169 0.0044999998 0.058802798
0.0013841462 0.0044999998 0.078401029
-0.00046474303 0.0044999998 0.08695139
0.0032073711 0.0044999998 0.12296684
0.0019450074 0.0044999998 0.079941869
0.00078255346 0.0044999998 0.072359458
0.0033678585 0.0044999998 0.081445567
0.003676899 0.0044999998 0.10153782
0.0040524933 0.0044999998 0.10748018
0.00044350253 0.0044999998 0.087600097
0.0035694062 0.0044999998 0.10425238
0.00056824059 0.0044999998 0.066799678
0.0020157888 0.0044999998 0.11191044
0.0025774986 0.0044999998 0.10141399
-0.0016247937 0.0044999998 0.077273637
0.001910875 0.0044999998 0.070976421
-0.00039590406 0.0044999998 0.063165426
0.0030188363 0.0044999998 0.11963735
0.0036959681 0.0044999998 0.10603069
-0.0017432472 0.0044999998 0.058823492
0.0029990042 0.0044999998 0.087990977
0.0040949536 0.0044999998 0.077484049
0.0026422229 0.0044999998 0.10631225
0.0001345857 0.0044999998 0.059427254
0.00099425833 0.0044999998 0.094680563
0.0039997385 0.0044999998 0.057794083
0.0029980638 0.0044999998 0.093154825
0.0020802622 0.0044999998 0.068553686
0.002858584 0.0044999998 0.11673246
0.0018392266 0.0044999998 0.095593117
-0.00049819046 0.0044999998 0.073925078
0.0027876883 0.0044999998 0.062632881
0.004485474 0.0044999998 0.12272288
0.00028685792 0.0044999998 0.078754976
0.0021629818 0.0044999998 0.11385152
-0.00016086119 0.0044999998 0.077114739
0.0039629107 0.0044999998 0.068787195
0.0037144346 0.0044999998 0.1092098
0.0021438061 0.0044999998 0.10414296
0.0015885154 0.0044999998 0.091664225
0.00065413787 0.0044999998 0.099679843
-0.00063461228 0.0044999998 0.088688567
-0.0029804804 0.0044999998 0.05780454
3.0116606e-05 0.0044999998 0.064230211
0.0016953547 0.0044999998 0.10220371
0.0018496005 0.0044999998 0.06740693
-0.0022440958 0.0044999998 0.073648423
0.0025816106 0.0044999998 0.069740668
0.0039351983 0.0044999998 0.08636272
-0.0042117154 0.0044999998 0.057484195
0.001260118 0.0044999998 0.10325375
0.0035069508 0.0044999998 0.10313638
0.0015900719 0.0044999998 0.08829499
0.003499453 0.0044999998 0.05940691
0.0016452818 0.0044999998 0.07416907
-0.0018958705 0.0044999998 0.066811725
-0.00064376101 0.0044999998 0.066819452
0.00080309092 0.0044999998 0.075782433
-0.0014398796 0.0044999998 0.083215907
-0.0023247509 0.0044999998 0.071843892
0.0012138071 0.0044999998 0.081674963
0.0014582247 0.0044999998 0.098229639
0.002430904 0.0044999998 0.08264178
0.0042637596 0.0044999998 0.075040326
-0.0025832718 0.0044999998 0.069780998
0.0031454531 0.0044999998 0.095025726
0.00067054346 0.0044999998 0.084189184
0.0012152493 0.0044999998 0.058498468
0.0038844482 0.0044999998 0.095962986
0.00010613007 0.0044999998 0.091183998
0.00057226856 0.0044999998 0.09319327
0.0023314047 0.0044999998 0.089297578
0.0042740502 0.0044999998 0.1002888
0.0011276305 0.0044999998 0.077064
0.00036639749 0.0044999998 0.095720999
-0.0010522457 0.0044999998 0.079017684
-0.002076833 0.0044999998 0.059932582
0.0029527226 0.0044999998 0.091631591
0.0034997934 0.0044999998 0.085284367
-0.00088405673 0.0044999998 0.084828347
0.00068876357 0.0044999998 0.068927154
0.00037718719 0.0044999998 0.071017787
0.0029753624 0.0044999998 0.080370031
0.0012325993 0.0044999998 0.089761041
0.0026277748 0.0044999998 0.05855637
0.0025768187 0.0044999998 0.076443277
0.0038259272 0.0044999998 0.08290635
0.0013082518 0.0044999998 0.05965982
0.0025175149 0.0044999998 0.090439826
0.0025865755 0.0044999998 0.11027866
-3.6928093e-05 0.0044999998 0.094215259
-4.1854395e-07 0.0044999998 0.057927627
0.0037856367 0.0044999998 0.12171721
0.0013734103 0.0044999998 0.086469755
-9.8051923e-06 0.0044999998 0.083215222
0.0014857475 0.0044999998 0.069687657
0.0044259718 0.0044999998 0.088127315
0.0015158068 0.0044999998 0.060805053
-0.00036714107 0.0044999998 0.089951962
0.0010975939 0.0044999998 0.065309353
0.0036490953 0.0044999998 0.11524467
0.0025447216 0.0044999998 0.086995468
0.0024569842 0.0044999998 0.064322866
-0.00099453819 0.0044999998 0.071497165
-0.00092644995 0.0044999998 0.082169123
0.0027948988 0.0044999998 0.078924857
0.0043499488 0.0044999998 0.093249246
0.0020371708 0.0044999998 0.099974453
0.0025731695 0.0044999998 0.10863197
-0.00020009989 0.0044999998 0.081308916
0.0035467816 0.0044999998 0.089530356
-0.0034883323 0.0044999998 0.06209955
-0.0029697781 0.0044999998 0.063455775
0.002639771 0.0044999998 0.072905608
-0.0018020687 0.0044999998 0.065382443
0.0040494734 0.0044999998 0.12822771
0.0013041535 0.0044999998 0.1049585
0.0017953452 0.0044999998 0.093803406
0.0026652631 0.0044999998 0.077706158
0.0044203848 0.0044999998 0.11152728
-0.0019281947 0.0044999998 0.075685523
0.0043503107 0.0044999998 0.11031367
0.0041981619 0.0044999998 0.070987329
-0.00095878611 0.0044999998 0.070117265
-0.0020267649 0.0044999998 0.068084106
0.0002280865 0.0044999998 0.085701279
-0.00082980125 0.0044999998 0.068756551
0.0039939326 0.0044999998 0.11802217
-0.0017563342 0.0044999998 0.063883342
0.00029522213 0.0044999998 0.062138457
0.00078518013 0.0044999998 0.09731587
-0.00042988386 0.0044999998 0.076020502
0.0029973274 0.0044999998 0.075127766
0.0029497882 0.0044999998 0.066660926
1.3310142e-05 0.0044999998 0.067990251
0.0032705609 0.0044999998 0.11244863
0.0036172203 0.0044999998 0.12427402
0.0012535683 0.0044999998 0.10091376
0.00030565396 0.0044999998 0.074707165
0.0023747173 0.0044999998 0.10753313
0.0027863767 0.0044999998 0.11840618
-0.0030039763 0.0044999998 0.064865351
0.0029837436 0.0044999998 0.097555086
0.003047565 0.0044999998 0.071702175
-0.0010878434 0.0044999998 0.074862435
0.0024457523 0.0044999998 0.061417431
-0.0033098159 0.0044999998 0.060204584
-0.0018096744 0.0044999998 0.057529509
-0.0017029658 0.0044999998 0.061793763
0.004320858 0.0044999998 0.063616037
0.0014172563 0.0044999998 0.083292194
-0.00014369436 0.0044999998 0.079830818
0.0014025362 0.0044999998 0.064084925
0.0016177756 0.0044999998 0.085245408
0.0042523816 0.0044999998 0.06702669
0.0033141426 0.0044999998 0.12072473
-0.0013426355 0.0044999998 0.14033379
-0.0022644645 0.0044999998 0.13830903
7.8703823e-05 0.0044999998 0.14058009
0.001802917 0.0044999998 0.13892519
0.0008509421 0.0044999998 0.13981056
-0.0019986718 0.0044999998 0.13725755
-0.00085919059 0.0044999998 0.13804534
0.0027108795 0.0044999998 0.13813081
-0.0002534602 0.0044999998 0.13922544
0.00053195917 0.0044999998 0.13758151
0.0038674942 0.0044999998 0.13809647
0.0021005506 0.0044999998 0.14028221
0.003127397 0.0044999998 0.13987283
0.0064743902 -0.0073728808 0.13748764
0.0064028562 -0.0093637807 0.13824338
0.0063208868 -0.008082116 0.13868317
0.005911178 -0.0079288557 0.13981088
0.0060968851 -0.0090621319 0.13939561
0.0053340229 -0.0071859476 0.1408502
0.0050406489 -0.009178089 0.14127772
0.0054674349 -0.010081585 0.14061356
0.0040637907 -0.0080830501 0.14223032
0.004079313 -0.006969545 0.14220041
0.0041221417 -0.0095956633 0.14217512
0.0024922718 -0.0079097599 0.14315556
0.0018476386 -0.0070680426 0.14341509
0.0031522724 -0.010251087 0.14280912
0.0033623318 -0.0087776156 0.14273119
-0.00013357073 -0.0089971423 0.14368242
-0.00012270198 -0.0079056267 0.14368385
0.0012902467 -0.0085108401 0.14351919
0.00044778039 -0.010032732 0.14363499
-0.002811939 -0.0078122932 0.14302228
-0.001422747 -0.0076157097 0.14350763
-0.0015651007 -0.0096710473 0.14346462
-0.0034434621 -0.0067547848 0.14268483
-0.0025730284 -0.010176313 0.14310002
-0.003096031 -0.00885507 0.14286287
-0.0052100243 -0.0069482005 0.14100641
-0.0044073528 -0.0083194831 0.1419314
-0.0047430736 -0.0096057225 0.14156966
-0.0057976437 -0.0075158011 0.14007291
-0.0060558184 -0.010177225 0.13950464
-0.0055172765 -0.0094926702 0.14054298
-0.0062020216 -0.0087558292 0.13913091
-0.0064904052 -0.0069396943 0.13731979
-0.0064022313 -0.0094408169 0.13825634
-0.0063276789 -0.0070460844 0.13856716
-0.0063064443 0.0067993375 0.13870214
-0.0064304229 0.0093110418 0.13802835
-0.0057945056 0.007039363 0.14006658
-0.0061071655 0.008032158 0.13934073
-0.0062052328 0.0091443127 0.13911843
-0.0050346917 0.0079552159 0.14125775
-0.0051511503 0.0096142264 0.14114359
-0.0056992574 0.0085248658 0.14023906
-0.0058307918 0.0098955026 0.13993834
-0.0044535631 0.0088179903 0.14187299
-0.0023772949 0.0066316002 0.14319181
-0.002712046 0.0078267977 0.14306378
-0.002551527 0.0098564308 0.14311665
-0.003599012 0.0095799183 0.14259814
-0.0011017435 0.0067165387 0.14355496
0.00023136412 0.0091321133 0.14366955
0.0003756544 0.0070608491 0.14365055
-0.0016705045 0.0077057695 0.14346813
-0.0017451297 0.009173871 0.14344163
-0.001516449 0.010348981 0.14346534
0.0027842084 0.007642244 0.14303225
0.0014819537 0.008899644 0.1434854
0.0037986604 0.0066907527 0.14241125
0.0027489716 0.0090556853 0.14303267
0.002330669 0.010472249 0.14321573
0.0050547919 0.0072168591 0.1412148
0.0050125825 0.0088598505 0.14130707
0.0043197349 0.0080961799 0.14202279
0.0060945144 0.0077805105 0.13936393
0.0058084093 0.0069801384 0.14003128
0.0052593178 0.010451236 0.14098999
0.0058532348 0.010459499 0.1398741
0.0056459899 0.0091377646 0.14031513
0.0062801628 0.008817899 0.13886699
0.0064520319 0.0073461295 0.13765462
0.0064873691 0.009535959 0.13737002
0.024424128 -0.013044235 0.17062581
0.02445576 -0.0077715926 0.17086607
0.024871597 -0.0093939509 0.17402469
0.024298221 -0.012235933 0.16966945
0.024385531 -0.0068003652 0.17033264
0.02451927 -0.011257124 0.1713485
0.024806412 -0.012975621 0.17352955
0.024800234 -0.0052190199 0.17348263
0.024865875 -0.0062279231 0.17398122
0.024887389 0.0030849895 0.17414463
0.024705909 0.0030978655 0.17276616
0.024809495 0.00050823553 0.17355298
0.024744051 -0.010085558 0.17305587
0.02480056 0.0018425336 0.17348509
0.024539527 -0.0054527083 0.17150235
0.024859965 -0.0010333114 0.17393632
0.024675075 -0.0010906741 0.17253195
0.024967255 -0.01274818 0.17475127
0.024981352 0.010582733 0.17485835
0.024938412 -0.00427503 0.17453219
0.024881741 -0.01188464 0.17410174
0.024983522 0.00059340714 0.17487483
0.024463879 -0.0043163891 0.17092776
0.024996776 0.0021341357 0.1749755
0.024356658 -0.0094612269 0.17011333
0.024888493 -0.0075133285 0.17415302
0.0249786 -0.010519599 0.17483746
0.024869639 -0.0032067674 0.1740098
0.024563646 -0.0098494831 0.17168556
0.024855912 0.0045288084 0.17390554
0.024561103 -0.012571516 0.17166625
0.024652326 -0.01422961 0.17235915
0.024928465 0.011943773 0.17445663
0.024530653 -0.0029789223 0.17143495
0.024659226 -0.0089797731 0.17241156
0.024667433 -0.0036664901 0.17247389
0.024714252 -0.011396435 0.17282952
0.024640869 -0.0073335879 0.17227213
0.024892248 0.0084555028 0.17418154
0.024868594 0.006376788 0.17400187
0.02466242 -0.0061387122 0.17243582
0.023105891 -0.011787336 0.1660133
0.02408918 -0.010037967 0.16838717
0.023566648 -0.00098973559 0.16712567
0.023727493 -0.0072878213 0.16751398
0.023644825 -0.0042173364 0.1673144
0.023548597 0.0032795405 0.16708209
0.022590792 -0.014345099 0.16476974
0.023163484 -0.0078007057 0.16615234
0.023196172 -0.0049778726 0.16623126
0.022047464 -0.011660449 0.16345802
0.022612078 -0.0094771376 0.16482113
0.023605945 0.0067582135 0.16722053
0.022588491 -0.010904586 0.16476418
0.021747798 -0.014528278 0.16273457
0.023855986 -0.011006548 0.16782419
0.023363981 -0.0088583445 0.16663638
0.023914313 -0.0031383028 0.16796499
0.024063716 0.0061503751 0.16832569
0.022809265 -0.0069831051 0.16529718
0.023939746 0.00054135884 0.1680264
0.023826633 0.0017662226 0.16775332
0.022241401 -0.01020796 0.16392623
0.023634562 -0.0097162081 0.16728963
0.022984218 -0.013326481 0.16571955
0.021897245 -0.012879043 0.16309537
0.023340041 -0.010786981 0.16657859
0.024059258 -0.014595254 0.16831493
0.024046741 0.0045463997 0.16828471
0.023135422 -0.0061472943 0.16608459
0.023986494 -0.013261198 0.16813926
0.023787836 -0.0058408566 0.16765966
0.023346964 -0.0033404084 0.1665953
0.023366807 0.0017822195 0.1666432
0.023018517 -0.0022645625 0.16580236
0.023225812 1.2849705e-05 0.16630282
0.022578387 -0.0042410106 0.16473979
0.022996783 0.00091061083 0.16574989
0.024067087 0.00314326 0.16833383
0.023133932 -0.014494363 0.166081
0.023608176 -0.012799894 0.16722593
0.022557491 -0.013134197 0.16468935
0.022678714 -0.0054203896 0.16498201
0.024615664 0.012490166 0.17208067
0.024533236 0.011242633 0.17145456
0.024304239 -0.0077497107 0.16971517
0.024511496 0.0076780855 0.17128943
0.024762031 0.010594532 0.17319243
0.024314044 -0.0026938564 0.16978966
0.024507828 0.0029504036 0.17126158
0.024168439 0.0091922972 0.16868368
0.024349377 0.0069997557 0.17005803
0.024262156 -0.004840137 0.16939552
0.024227228 0.0079918206 0.16913022
0.024425637 0.012138978 0.17063728
0.024985874 0.014315014 0.17489271
0.024806287 0.01450629 0.1735286
0.024362369 0.010892404 0.17015672
0.024713777 0.0079036495 0.17282592
0.024430495 0.013315554 0.17067418
0.024579093 0.0012543646 0.17180288
0.024208259 0.001162749 0.16898613
0.024307232 0.0030363223 0.16973791
0.024495084 0.010004778 0.17116478
0.024632707 0.0068436358 0.17221013
0.0244221 0.0041627213 0.17061041
0.024203999 -0.0088084964 0.16895378
0.024189284 -0.0037279734 0.168842
0.024628595 0.005660736 0.17217889
0.024315421 0.0058510154 0.1698001
0.024511429 -0.0017767841 0.17128894
0.024178756 -0.0059338831 0.16876204
0.024726976 0.011774892 0.17292617
0.024162641 0.010768541 0.16863963
0.02415387 -0.0011457722 0.16857301
0.024356192 0.00065579725 0.17010979
0.02437 -0.00066901825 0.17021467
0.024608891 0.014556861 0.17202923
0.024435915 0.0087532951 0.17071535
0.024283824 0.0099692103 0.1695601
0.024284 0.012678564 0.16956145
0.024390323 0.0019397057 0.17036904
0.024862098 0.013377042 0.17395252
0.024218233 -0.011205008 0.1690619
0.024644583 0.0092412736 0.17230035
0.024502028 -0.0002784321 0.17121752
0.024496255 0.0064111287 0.17117368
0.024246095 0.0040322486 0.16927353
0.019309551 -0.013790738 0.15944904
0.020367499 -0.0058508841 0.16082779
0.020484325 -0.0096963821 0.16098003
0.021497564 0.001519591 0.16230051
0.018618084 -0.014476896 0.15854791
0.01926019 -0.0056662462 0.15938471
0.020075085 -0.0081576901 0.1604467
0.021186754 -0.0025789489 0.16189545
0.02154894 -0.0012989549 0.16236746
0.019691123 -0.010486398 0.15994631
0.02122676 -0.010652989 0.16194759
0.020061495 -0.00082796498 0.16042899
0.0215206 5.551512e-05 0.16233052
0.020566035 0.0033430306 0.16108651
0.020473119 -0.0032032086 0.16096543
0.020423207 -0.010848384 0.16090038
0.01841234 -0.012323588 0.15827978
0.01938987 -0.0089303115 0.15955371
0.021205641 0.006418989 0.16192007
0.020094899 -0.014464543 0.16047253
0.021403711 -0.0066843205 0.1621782
0.021319641 -0.013540789 0.16206864
0.021236144 -0.007806201 0.16195983
0.020481009 0.0017716326 0.16097571
0.019260027 -0.0030143226 0.1593845
0.019700907 -0.0065526888 0.15995906
0.019395631 -0.012614444 0.15956122
0.01855626 -0.008289597 0.15846734
0.018909531 -0.0098805074 0.15892772
0.019825418 -0.0049616094 0.16012132
0.019230364 -0.0074705449 0.15934584
0.021191325 -0.012113882 0.16190141
0.02028136 0.00025508515 0.16071552
0.021188624 0.0041914489 0.16189788
0.021292463 -0.0090861581 0.16203322
0.017708205 -0.01462543 0.15736212
0.021068294 0.008426222 0.16174108
0.021064952 -0.005642768 0.16173671
0.021544965 0.0029355159 0.16236228
0.0209311 0.0053981598 0.16156228
0.020334762 0.004570045 0.16078511
0.020363165 -0.012602533 0.16082214
0.020707019 -0.0045739352 0.16127025
0.019685088 -0.011662408 0.15993844
0.023570219 0.01136758 0.16713428
0.023002202 0.0063732187 0.16576298
0.022096597 0.0049699382 0.16357665
0.022548202 0.0055088005 0.16466692
0.022288501 0.014234681 0.16403994
0.021755191 -0.0037021104 0.16275242
0.022334313 0.01288767 0.16415054
0.02272496 -0.00023283483 0.16509365
0.021745447 0.0073658857 0.16272889
0.02178848 -0.010036866 0.16283278
0.02326875 0.0053771483 0.16640647
0.022190023 -0.0039113131 0.16380219
0.023462409 0.0086107552 0.16687401
0.022121483 0.002948533 0.16363673
0.022787716 0.0077182748 0.16524516
0.023073113 0.0037606368 0.16593416
0.02203151 0.0087299794 0.16341951
0.021857915 -0.0023400208 0.16300042
0.023289513 0.010067258 0.1664566
0.022569641 -0.0016805812 0.16471867
0.022600912 0.0017777743 0.16479416
0.02309349 0.013182099 0.16598336
0.022460187 0.010118895 0.16445443
0.02263625 -0.0029149742 0.16487949
0.02233755 0.00027884333 0.16415836
0.023890425 0.013254839 0.16790733
0.022061853 0.001506509 0.16349277
0.022158405 -0.0077709327 0.16372587
0.024033329 0.014508219 0.16825233
0.021880273 -0.0088923071 0.16305439
0.021688014 0.0093197264 0.16259024
0.021804487 0.010433213 0.16287142
0.023006381 0.011192635 0.16577306
0.021666529 0.013060223 0.16253836
0.02290418 0.0048129936 0.16552632
0.022410715 0.011795102 0.164335
0.022156684 0.0068839709 0.16372171
0.021993244 -0.00077788357 0.16332713
0.02187641 -0.0051303506 0.16304506
0.022683227 0.0030653728 0.1649929
0.021871088 0.0039028977 0.16303222
0.021970347 -0.0066219843 0.16327184
0.023052434 0.0091514122 0.16588424
0.01630779 -0.0045091179 0.15627119
0.01731864 -0.013423872 0.15704684
0.013683235 -0.01036711 0.1542573
0.014110898 -0.0074540959 0.15458545
0.017635882 0.010477941 0.15729026
0.015932888 -0.0056813522 0.15598352
0.017492365 0.012344421 0.15718015
0.017434418 -0.0086563677 0.15713568
0.013412069 -0.013425404 0.15404922
0.015483014 0.0018422996 0.15563832
0.015650937 -0.012455653 0.15576717
0.017645972 0.0027432502 0.15729801
0.017540345 -0.01190403 0.15721697
0.015377405 -0.0034925134 0.15555727
0.013697549 -0.011752394 0.15426828
0.016563443 0.0043957327 0.15646736
0.017434901 -0.0058236783 0.15713605
0.014808294 -0.00944148 0.15512058
0.01673989 -0.0006602623 0.15660276
0.014932084 -0.013193079 0.15521558
0.017367158 0.0038302357 0.15708406
0.015641715 -0.0085588703 0.15576009
0.016744176 0.0021562751 0.15660603
0.014878953 -0.011635334 0.15517481
0.016331889 0.0057938672 0.15628968
0.017301744 -0.010047804 0.15703388
0.015744349 0.0031520091 0.15583885
0.017266342 -0.0027895607 0.15700671
0.016664028 -0.012195843 0.15654454
0.014770935 -0.0062508108 0.15509191
0.017456949 -0.0039886036 0.15715297
0.016760189 -0.0072177672 0.15661833
0.017343827 -0.0015858174 0.15706617
0.016587896 -0.010740014 0.15648612
0.016797878 0.0092466027 0.15664725
0.016505668 -0.0091882702 0.15642302
0.017639089 0.013801918 0.15729272
0.016157115 -0.013535299 0.15615557
0.017516097 0.0081082331 0.15719835
0.017180637 0.0067099798 0.15694095
0.015638502 -0.0012288358 0.15575762
0.012822798 -0.014484556 0.15359706
0.016012898 1.5049141e-05 0.15604492
0.016505832 -0.0033938107 0.15642315
0.015941661 -0.002234655 0.15599024
0.018475562 -0.0072074337 0.15836217
0.019393725 0.013783977 0.15955873
0.020073969 0.012765295 0.16044524
0.018368829 -0.0046129962 0.15822306
0.017901484 0.0013245466 0.15761401
0.019116258 0.0074859024 0.15919714
0.018397126 0.0082805678 0.15825994
0.018999953 0.012721057 0.15904556
0.019514099 0.011072282 0.15971561
0.018338464 -0.0060525737 0.1581835
0.017906023 0.0093537029 0.15761992
0.018280689 0.00713947 0.1581082
0.018856866 -0.00036610433 0.15885909
0.019408878 -0.0018612379 0.15957849
0.020322248 0.011348338 0.16076881
0.020047011 0.010021349 0.16041012
0.021167222 0.012173465 0.16187
0.018128829 -0.010887989 0.15791029
0.018827666 0.0091975778 0.15882103
0.019514566 0.0045981221 0.15971622
0.0180392 0.0060700681 0.15779349
0.018240996 -0.0028611424 0.15805647
0.018460054 0.00066540251 0.15834196
0.020941056 0.014487215 0.16157526
0.018226199 0.0044054794 0.15803719
0.018450076 0.010413685 0.15832895
0.018502012 0.0020436225 0.15839663
0.019879945 0.0066306414 0.16019239
0.019605642 0.00069233932 0.15983491
0.019410677 0.0085029136 0.15958083
0.018855436 0.0033007548 0.15885723
0.018868454 0.0062847226 0.15887418
0.02016465 0.007942047 0.16056342
0.018085185 0.011475826 0.15785341
0.018131601 -0.0011953755 0.15791391
0.019831263 0.0023914657 0.16012895
0.01029157 -0.011075011 0.1524346
0.0075979498 -0.014428137 0.15131888
0.01169572 -0.006965491 0.15301622
0.008182901 -0.0081352592 0.15156117
0.0093912501 -0.011752155 0.15206169
0.010010625 -0.0043371627 0.15231824
0.012305975 -0.005895928 0.15326901
0.011502093 -0.0047441674 0.15293603
0.011947903 0.0081231166 0.15312068
0.01247906 0.011003702 0.1533407
0.0097012892 -0.0099766543 0.1521901
0.011850027 -0.008337656 0.15308014
0.0112405 0.0044912403 0.15282767
0.0093016885 -0.01329303 0.15202458
0.0101214 -0.00057946454 0.15236412
0.01087923 -0.013838694 0.15267803
0.010857098 -0.010157898 0.15266886
0.011898051 -0.0013650991 0.15310003
0.0084563438 -0.0066510816 0.15167443
0.010641005 0.00088847545 0.15257935
0.010504256 -0.0054786359 0.15252271
0.01041218 0.0035572536 0.15248457
0.0083124172 -0.011884668 0.15161481
0.010316066 0.0021317501 0.15244475
0.0071688453 -0.01226298 0.15114114
0.011842566 -0.0034010953 0.15307705
0.01197828 -0.0097491983 0.15313327
0.012036868 0.0026024147 0.15315753
0.0078502782 -0.0099881152 0.15142339
0.0093238512 -0.0013778878 0.15203376
0.0092150653 -0.0052739186 0.1519887
0.012170669 0.01244557 0.15321295
0.011025713 -0.0089595458 0.15273871
0.0099602137 -0.0086826272 0.15229736
0.010785057 -0.0034493657 0.15263902
0.0089459047 -0.0090775182 0.15187721
0.011574192 0.009897192 0.15296589
0.009431188 -0.003345703 0.15207823
0.011168749 -0.0023435138 0.15279795
0.0098946337 -0.0073347958 0.1522702
0.01138809 0.0058236462 0.1528888
0.0079737548 -0.013056422 0.15147454
0.010591893 -0.012379522 0.15255901
0.014922249 -0.00035709108 0.15520802
0.01441658 0.012328338 0.15482001
0.013535597 0.0016339057 0.154144
0.013016892 0.012018972 0.15374599
0.013156567 -0.0077277943 0.15385316
0.014002729 0.0084064007 0.15450245
0.014781709 0.0076621026 0.15510018
0.016607692 0.011362775 0.15650131
0.013953377 0.011239227 0.15446459
0.015187864 0.013395785 0.15541184
0.013348227 0.0029499836 0.15400024
0.015219287 0.00083947968 0.15543595
0.014544614 -0.001909373 0.15491825
0.012955084 -0.0092517538 0.15369856
0.01275413 0.013335614 0.15354437
0.014458937 0.0016484553 0.15485251
0.01410699 -0.0047153207 0.15458246
0.012752 0.0060451515 0.15354274
0.012630224 -0.011656428 0.1534493
0.012556447 0.0041075461 0.15339269
0.013809501 -0.0058353394 0.15435418
0.012509163 0.0013221126 0.1533564
0.012712668 -0.010539349 0.15351255
0.014763352 0.003099269 0.1550861
0.012781435 0.00011603115 0.15356532
0.014124833 0.013653703 0.15459615
0.015738361 0.0075321007 0.15583424
0.014656424 0.009503305 0.15500405
0.015331885 0.01228782 0.15552235
0.016299747 0.012392352 0.15626502
0.012975943 -0.0031211576 0.15371457
0.012840508 0.0095427809 0.15361065
0.015051568 0.011204884 0.15530725
0.014334284 0.0061067441 0.15475686
0.013431976 0.0075145774 0.15406451
0.014753768 0.0044829128 0.15507874
0.012558151 -0.012789366 0.15339398
0.01583942 0.0087726088 0.15591179
0.013595067 0.004320106 0.15418965
0.015301091 0.0064088088 0.15549871
0.012781745 -0.0041981637 0.15356556
0.013833637 -0.00023213618 0.15437271
0.012968309 -0.0019722045 0.15370871
0.014043806 -0.0034848501 0.15453397
0.0056721913 -0.01167372 0.15074676
0.0056230077 -0.0017157405 0.1507403
0.0040858476 -0.0055310917 0.15053792
0.001562672 -0.011927518 0.15020573
0.0022137233 -0.013654285 0.15029144
0.0039430982 0.0020683191 0.15051912
0.0044329241 -0.0038264988 0.15058361
0.0023015926 -0.004868547 0.15030302
0.0031360351 -0.0013989491 0.15041287
0.005181571 0.0042881644 0.15068217
0.0026888687 -0.012472934 0.150354
0.0061169825 -0.009780298 0.15080532
0.0046472186 0.0030569336 0.15061182
0.00080655399 -0.013734964 0.15010619
0.0036885664 -0.011357784 0.15048562
0.0061617293 -0.007273261 0.15081121
0.0062520197 -0.0044316505 0.1508231
0.00327913 -0.0102652 0.15043171
0.0062020188 -0.0060330373 0.15081652
0.0051998938 -0.012766306 0.15068458
0.0046896753 -0.00090289133 0.15061742
0.0052740844 -0.014492413 0.15069436
0.0035230923 -0.0032344242 0.15046383
0.0043866141 0.00043300114 0.15057752
0.0062102289 0.011358011 0.1508176
0.0052427379 0.0073118061 0.15069023
0.0030418229 -0.0075160284 0.15040047
0.0064274338 -0.0030134867 0.1508462
0.0019793005 -0.0099569857 0.15026058
0.0056628254 0.010382175 0.15074553
0.0030136995 -0.0061969487 0.15039676
0.0049140658 -0.010667922 0.15064695
0.0034612892 -0.0044839634 0.1504557
0.0018199282 -0.0075287465 0.1502396
0.0040275538 -0.01276173 0.15053025
0.006038147 -0.013549909 0.15079494
0.0032953171 -0.0090440689 0.15043384
0.0055917515 0.0017366244 0.15073617
0.0046178293 -0.0087151499 0.15060796
0.0057938895 0.0086356876 0.15076278
0.0054897382 0.00025570826 0.15072274
0.0048913569 -0.00678585 0.15064396
0.0047240555 -0.002417685 0.15062194
0.0056221695 0.0056513213 0.15074018
0.0063193655 0.0047810706 0.15083197
0.0069993138 0.010242045 0.15107091
0.0084590111 0.0070360065 0.15167554
0.0082634026 -0.0016704964 0.15159452
0.007487773 -0.0071229925 0.15127324
0.0070850616 -0.00033874251 0.15110643
0.010610992 0.0074098241 0.15256692
0.0079700109 -0.0028082163 0.15147299
0.011331238 0.010987429 0.15286525
0.0077664312 0.0083804661 0.15138866
0.0086196866 0.0053052721 0.15174209
0.0077289212 -0.0050680381 0.15137312
0.0091146305 0.009248334 0.15194711
0.0095408568 0.0010675006 0.15212366
0.0094292294 0.012262246 0.15207742
0.010588833 0.012173249 0.15255775
0.0065224459 0.0071887714 0.15087339
0.0108906 0.013856278 0.15268274
0.0084964978 0.013192976 0.15169106
0.0080053881 0.0010365723 0.15148765
0.0070309965 -0.0088749034 0.15108404
0.0096949721 0.0053723627 0.1521875
0.0087549556 0.014465164 0.15179813
0.0072541679 -0.0020814484 0.15117648
0.010299371 0.010441652 0.15243784
0.0072349492 -0.0038099738 0.15116851
0.0066266623 0.0013115879 0.15091656
0.0079570841 0.0023940664 0.15146764
0.0068589598 0.0035239242 0.15101278
0.0073601902 0.01395239 0.1512204
0.0088665858 0.010686423 0.15184437
0.010114197 0.006462316 0.15236114
0.0085907876 -0.00044894198 0.15173012
0.010817587 0.0089914175 0.15265249
0.0073900027 0.01287699 0.15123273
0.007230843 0.0058120843 0.15116681
0.0092868172 0.0078756586 0.15201843
0.0080938432 0.0037743561 0.15152428
0.0065088421 -0.010925774 0.15086775
-0.0016483155 0.0058240155 0.15021701
-0.0034981288 -0.0024560529 0.15046054
-0.00044577656 -0.010924518 0.15005869
-0.00093633501 -0.0082083382 0.15012328
-0.00054975972 0.0058364891 0.15007238
-0.0013659387 -0.010046649 0.15017983
-0.0044616801 -0.0084828408 0.15058739
-0.0037578698 -0.0050286325 0.15049474
-0.00072551548 -0.002440053 0.15009552
-0.00021616604 -0.012537141 0.15002847
-0.00035278386 0.0088776583 0.15004645
-0.0049787974 -0.0096519617 0.15065548
-0.002626936 -0.0042465087 0.15034585
-0.0026587537 -0.0014414759 0.15035003
-0.0046017794 -0.0067667183 0.15060584
-0.0029487428 -0.010586394 0.15038821
-2.3781458e-05 -0.0062581101 0.15000314
-0.00033599147 0.0033566782 0.15004425
-0.00063869474 -0.00051420182 0.15008409
-0.0015243939 0.00015765933 0.15020069
-0.00030502692 -0.014066468 0.15004016
-0.0032789842 -0.0061030718 0.15043169
-0.00038408843 0.011354188 0.15005057
-0.004941849 -0.011117809 0.15065061
-0.005265818 -0.013775537 0.15069327
-0.0011806334 -0.013339534 0.15015544
-0.0015744552 -0.0017695555 0.15020728
-0.0038137503 -0.0099228742 0.1505021
-0.0021022188 0.0025570178 0.15027677
-0.0002308393 0.010042669 0.15003039
-0.0010943748 -0.0057340995 0.15014409
-0.003052853 -0.013129004 0.15040192
-0.0020726104 -0.012537415 0.15027288
-0.0015655956 0.0014536956 0.15020612
-0.0012737685 -0.0070872842 0.1501677
-0.003092512 -0.011935595 0.15040715
-0.0030941903 -0.0078571495 0.15040736
-0.0028685515 -0.0002785165 0.15037766
-0.0031102786 -0.0089165047 0.15040947
-0.0048609558 -0.012369138 0.15063997
-0.0015541926 0.0038198431 0.15020461
-0.00080539804 0.007874053 0.15010604
-0.00094673026 -0.004032704 0.15012464
-0.00045175391 -0.0093981996 0.15005948
0.0018001318 0.00066050829 0.15023699
0.0037397235 0.0057327426 0.15049236
0.00059855368 -0.0032149025 0.1500788
0.00012607145 0.012385349 0.15001661
0.004141802 0.011014536 0.15054528
0.002712799 0.002854635 0.15035716
0.0034192482 0.0084644072 0.15045016
0.00010632681 0.0068388437 0.150014
0.0047535934 0.012256421 0.15062582
0.00014981662 -0.0016283466 0.15001974
0.0019354258 0.0097225308 0.15025482
0.0023713652 -0.0035176009 0.1503122
0.0028127383 0.011106637 0.15037031
0.0043168343 0.009387143 0.15056832
0.0010201852 -0.00044442283 0.15013431
0.0020955259 0.0062018009 0.15027589
0.0035457599 0.012047102 0.15046681
0.0006316026 0.014508465 0.15008315
0.0039719511 0.0045215986 0.15052292
0.0020925682 0.012444619 0.1502755
0.0017478094 -0.0064172298 0.15023011
0.0021060097 0.013907461 0.15027727
0.0010838667 -0.0042760074 0.1501427
0.0010034007 0.0090234615 0.1501321
0.0021782785 -0.00065840047 0.15028678
0.0018273551 0.0080259191 0.15024059
0.0014934338 0.0019199802 0.15019663
0.0060727419 0.012979482 0.1507995
0.001138997 0.0048894365 0.15014996
0.0039937766 0.013137331 0.15052579
0.0028758179 0.0040810402 0.15037861
0.0024859612 -0.0023216167 0.1503273
0.00026278419 0.0021127393 0.15003461
0.0030047747 0.014600993 0.15039559
0.00079083326 0.0038462644 0.15010412
0.00075231062 -0.0053187497 0.15009905
0.0048280382 0.01440145 0.15063563
0.00053008401 -0.0089317951 0.15006979
0.00017447377 -0.007625916 0.15002297
0.00048997113 0.00073155778 0.15006451
0.00077262084 -0.010119816 0.15010172
0.0032454233 0.0097771063 0.15042727
0.00084408344 0.011153162 0.15011114
-0.0066114455 0.00022487364 0.15091026
-0.011424469 -0.01329137 0.15290387
-0.0068981932 0.012274263 0.15102902
-0.008297896 0.0053252322 0.15160879
-0.0090113664 -0.008736616 0.15190433
-0.01090964 -0.014531275 0.15269062
-0.010584955 -0.0079517001 0.15255614
-0.008264835 -0.00464263 0.1515951
-0.0072589805 -0.00073741615 0.15117846
-0.009691285 -0.0051169903 0.15218596
-0.0066675581 -0.013357081 0.15093349
-0.0068444954 0.0057267761 0.15100679
-0.010376646 -0.012222924 0.15246984
-0.0072700079 0.0029221678 0.15118304
-0.0095142471 -0.0074093966 0.15211263
-0.011433474 -0.012113784 0.1529076
-0.0083694961 0.0023846494 0.15163846
-0.008822226 -0.013873379 0.15182598
-0.0076458906 0.00086258486 0.15133873
-0.007853982 -0.0017229952 0.15142493
-0.0099412873 -0.002717945 0.15228951
-0.0066744983 -0.0035988179 0.15093637
-0.0092455372 -0.0017304844 0.15200132
-0.0087698707 -0.010606202 0.1518043
-0.0071617537 -0.0087384032 0.1511382
-0.0073998235 -0.010968703 0.1512368
-0.0066871368 0.0014957007 0.15094161
-0.0077977721 -0.013593633 0.15140164
-0.0081432136 -0.011656352 0.15154473
-0.0085703246 -0.0030480886 0.15172164
-0.0086787753 -0.0056468011 0.15176657
-0.0079412246 -0.0075510978 0.15146106
-0.011088234 -0.0090065459 0.1527646
-0.0085653104 0.0041472032 0.15171957
-0.0094147129 -0.012856705 0.1520714
-0.0065381415 0.0074672922 0.15087989
-0.00765072 0.0068078535 0.15134074
-0.0069722752 -0.0025038568 0.15105972
-0.0085667623 -0.00033962735 0.15172017
-0.010118319 -0.0065390551 0.15236284
-0.0087017268 0.0010084215 0.15177608
-0.0095163919 -0.01152495 0.15211351
-0.0066262372 0.0039174552 0.15091638
-0.0077031739 0.0079308627 0.15136246
-0.0070533054 -0.0056926343 0.15109327
-0.010929658 -0.010800608 0.15269892
-0.0046012904 0.0048896885 0.15060578
-0.004553827 0.010935196 0.15059952
-0.0060953433 -0.0073041059 0.15080248
-0.0033448245 0.0068568643 0.15044037
-0.0023582336 0.0047414456 0.15031047
-0.0048620966 -0.0011915348 0.15064012
-0.0035227009 0.0085549476 0.15046377
-0.0061833411 -0.012001932 0.15081406
-0.0046225637 0.0069088573 0.15060858
-0.0064449604 0.0088387476 0.15084851
-0.0064165117 0.011144307 0.15084475
-0.0046591219 0.0097738169 0.1506134
-0.0028519519 0.011207367 0.15037547
-0.003787112 0.0017033989 0.15049858
-0.0057688546 0.0027452006 0.15075949
-0.001735021 0.01360737 0.15022843
-0.0054804971 0.008280199 0.15072152
-0.0040691658 -0.00041598667 0.15053572
-0.0034889344 0.0030064008 0.15045933
-0.0059180646 -0.0088945506 0.15077913
-0.0020868869 0.0099686682 0.15027475
-0.0016629633 0.011375548 0.15021893
-0.0058165272 0.012255308 0.15076576
-0.0058788992 0.013863178 0.15077397
-0.0055163684 0.00049621408 0.15072624
-0.0041990243 0.01291476 0.15055282
-0.0057570376 -0.0045973943 0.15075794
-0.0045711785 -0.0031486989 0.15060182
-0.005129952 -0.0058528357 0.15067537
-0.0032929257 0.0057141557 0.15043353
-0.0057314928 0.0060874638 0.15075457
-0.0055128685 0.0016401205 0.15072578
-0.002935519 0.013638859 0.15038647
-0.0058709108 -0.0025556886 0.15077293
-0.0028713881 0.012429884 0.15037803
-0.0047595813 0.0035398342 0.15062661
-0.0034867171 0.0097090872 0.15045904
-0.0023764358 0.0145847 0.15031287
-0.0011261298 0.012391463 0.15014826
-0.0019412327 0.0069277789 0.15025558
-0.0062993593 -0.01057724 0.15082933
-0.0019597411 0.0087317983 0.150258
-0.014562187 0.0025467668 0.15493174
-0.017462792 -0.01451079 0.15715745
-0.014399826 0.0011960812 0.15480715
-0.014142442 -0.013138081 0.15460967
-0.012990448 -0.0098172268 0.1537257
-0.012825029 0.011893866 0.15359877
-0.015229411 -0.014507152 0.15544371
-0.013513264 0.0080347462 0.15412687
-0.013362983 -0.0061214706 0.15401156
-0.013401946 0.001278339 0.15404145
-0.012857712 -0.0086560519 0.15362385
-0.014036823 -0.011551428 0.15452862
-0.013193466 -0.00057923154 0.15388149
-0.0140952 -0.0007768973 0.15457341
-0.015886489 -0.011293765 0.15594791
-0.013178655 -0.0020981294 0.15387012
-0.014961922 -0.010860803 0.15523846
-0.014944445 -0.0037880505 0.15522505
-0.015489728 -0.01324325 0.15564346
-0.014726778 -0.0091736717 0.15505804
-0.016284199 -0.008355476 0.15625308
-0.013132932 -0.012923638 0.15383503
-0.013636792 -0.0032608947 0.15422165
-0.01340857 -0.0075953729 0.15404654
-0.016307687 -0.01350988 0.15627111
-0.013795676 -0.0102249 0.15434358
-0.012538321 -0.013845125 0.15337877
-0.013876284 0.0034615942 0.15440543
-0.014477095 -0.0072066435 0.15486644
-0.014369563 -0.0056390758 0.15478393
-0.014964158 -0.012095395 0.15524018
-0.015733203 -0.0052438327 0.15583029
-0.013335217 0.0066115763 0.15399025
-0.013084666 0.0098620756 0.153798
-0.013456956 0.0046254192 0.15408367
-0.01402031 -0.0021945413 0.15451594
-0.015333877 -0.0072395597 0.15552388
-0.015297947 -0.002362414 0.15549631
-0.014150152 -0.014418781 0.15461558
-0.016826713 -0.01063814 0.15666936
-0.007896604 0.010620107 0.15144259
-0.0089005958 0.011143339 0.15185845
-0.008677341 0.0097619072 0.15176597
-0.010284234 0.006594575 0.15243156
-0.012085024 -0.0027429049 0.15317748
-0.0108707 0.0034148607 0.1526745
-0.0096276067 -0.00066168851 0.15215959
-0.010286706 0.011434558 0.15243259
-0.010223814 0.0050340197 0.15240654
-0.010926649 0.0086155096 0.15269767
-0.01234384 -0.0045522414 0.15328468
-0.0097835716 0.0027028418 0.15222418
-0.012201513 0.0031773893 0.15322573
-0.011442554 0.0022120657 0.15291137
-0.01247423 0.0070654391 0.1533387
-0.012353606 0.0015835778 0.15328874
-0.0087785637 0.012337823 0.1518079
-0.009693034 0.010311027 0.15218669
-0.012436351 -0.0059218938 0.15332301
-0.011348926 0.013436943 0.15287258
-0.010219493 0.012985112 0.15240476
-0.0098398607 0.0039255596 0.1522475
-0.0099796578 0.0092209484 0.15230541
-0.0097411741 0.00059727818 0.15220663
-0.012050259 0.014279398 0.15316308
-0.011524893 -0.0016773043 0.15294547
-0.010874365 -0.00081524329 0.15267602
-0.011748563 0.0099787386 0.15303811
-0.0086081922 0.013575987 0.15173733
-0.011245392 -0.0061485218 0.15282969
-0.011258028 -0.0036736128 0.15283492
-0.011448729 0.0071708327 0.15291391
-0.011470107 0.00052593084 0.15292278
-0.011189011 -0.0049673091 0.15280634
-0.0093852794 0.0058165197 0.15205921
-0.010723018 0.0013592566 0.15261333
-0.011980556 0.01137886 0.15313421
-0.0094990106 0.0074466597 0.15210631
-0.011544742 0.0047722119 0.15295368
-0.012148731 -0.011120872 0.15320387
-0.01232342 -0.007549671 0.15327623
-0.011121101 0.0058002891 0.15277821
-0.0089259166 0.0085055474 0.15186894
-0.012024345 -0.00036266266 0.15315235
-0.019828528 -0.0049265935 0.16012537
-0.019905217 -0.010976954 0.16022532
-0.018794307 -0.0050211209 0.15877756
-0.019629024 -0.0072372905 0.15986538
-0.01829242 -0.0063943057 0.15812349
-0.020045206 -0.014617609 0.16040777
-0.017804034 0.0050713359 0.15748702
-0.017758546 -0.0039344346 0.15742773
-0.018485177 -0.0081888577 0.1583747
-0.019298261 -0.012994324 0.15943432
-0.018499231 -0.01256363 0.15839301
-0.020814054 -0.011848597 0.16140974
-0.019021666 -0.0061598918 0.15907386
-0.019146916 -0.0015310459 0.15923709
-0.018114189 -0.005124649 0.15789121
-0.018841773 -0.00012845398 0.15883942
-0.017698126 -0.0086048795 0.15734899
-0.019267263 -0.011729371 0.15939392
-0.018245729 0.00068575836 0.15806264
-0.017955814 0.011208052 0.15768482
-0.018136064 -0.0099558569 0.15791972
-0.018681258 -0.0033585269 0.15863024
-0.020299906 -0.01268865 0.16073969
-0.019176709 -0.010399547 0.15927592
-0.020975355 -0.010103793 0.16161996
-0.020829566 -0.014569963 0.16142996
-0.018539766 0.0062614223 0.15844584
-0.019127559 0.0017778759 0.15921186
-0.019709378 -0.0030012997 0.1599701
-0.019772768 -0.0087248581 0.16005272
-0.019165399 0.0033154374 0.15926118
-0.018824551 -0.0093592545 0.15881698
-0.019377006 0.00072549272 0.15953694
-0.018446183 0.0087436773 0.15832388
-0.018132407 0.0024021757 0.15791495
-0.018011792 0.007150535 0.15775776
-0.017881582 -0.0006609197 0.15758808
-0.019514028 -0.00045190152 0.15971552
-0.018469283 -0.011082182 0.15835398
-0.018270506 -0.013801475 0.15809493
-0.018073745 0.0037689123 0.15783851
-0.01816109 -0.0023938469 0.15795234
-0.017073316 -0.00053823087 0.15685859
-0.017440334 0.012302281 0.15714021
-0.015771925 0.0094475672 0.15586001
-0.016141081 0.012516426 0.15614326
-0.016613446 0.0037366229 0.15650572
-0.015144198 0.0079492452 0.15537833
-0.017259566 0.0024717143 0.15700151
-0.016876606 -0.0094400169 0.15670766
-0.016639775 0.0054770624 0.15652592
-0.013991213 0.0093233921 0.15449362
-0.015907308 0.013848667 0.15596388
-0.016683966 0.0066427998 0.15655984
-0.01713874 0.0092407651 0.1569088
-0.01449218 0.0048486115 0.15487802
-0.015586982 0.0048915474 0.15571809
-0.015543262 0.0015709256 0.15568455
-0.014445662 0.01077636 0.15484233
-0.013490157 0.011065822 0.15410915
-0.017634077 0.0013588086 0.15728888
-0.015002088 0.012873487 0.15526928
-0.016903251 -0.0065037399 0.1567281
-0.015436985 -0.0010535803 0.15560299
-0.017007571 0.010675622 0.15680815
-0.016404074 0.00067982305 0.15634507
-0.01737229 -0.012741378 0.15708801
-0.015089801 0.0062085981 0.15533659
-0.016664788 -0.003466903 0.15654512
-0.015629329 0.0037349102 0.15575059
-0.01602836 0.0080669913 0.15605678
-0.015374962 0.00036970264 0.1555554
-0.016241604 -0.0021342533 0.15622041
-0.017172504 -0.0075900336 0.15693471
-0.014208265 0.0071947402 0.15466017
-0.013129194 0.013058237 0.15383217
-0.017275548 -0.002234766 0.15701377
-0.016329469 0.0021891694 0.15628782
-0.014904848 0.0093599008 0.15519467
-0.015329605 0.011743404 0.1555206
-0.013971106 0.012789794 0.15447819
-0.017299598 -0.011573445 0.15703222
-0.016788615 -0.0046955892 0.15664014
-0.017146997 0.0078012706 0.15691513
-0.016106749 0.010798553 0.15611692
-0.016836284 0.013457184 0.15667671
-0.023041539 -0.0021551303 0.16585794
-0.02227086 -0.012290331 0.16399735
-0.021768084 0.010340527 0.16278355
-0.022859473 -0.0042863521 0.16541839
-0.02288446 -0.01156251 0.16547872
-0.021952102 -0.0043942984 0.1632278
-0.022202116 0.0039038481 0.16383138
-0.022064907 0.0060611456 0.16350015
-0.022397717 -0.0067225494 0.16430362
-0.021703785 -0.013727663 0.16262831
-0.022373335 0.0049615558 0.16424476
-0.022365145 -0.0042462558 0.16422498
-0.02285208 -0.0066610193 0.16540055
-0.02187453 0.0083967149 0.16304053
-0.021816095 0.0022684599 0.16289945
-0.022582565 0.0023321377 0.16474988
-0.021934975 -0.010767787 0.16318646
-0.023298739 -0.0092617897 0.16647887
-0.023786815 -0.011088608 0.1676572
-0.022052821 -0.014532925 0.16347095
-0.023728656 -0.0099989045 0.16751678
-0.023317643 -0.0070062308 0.16652451
-0.022447459 -0.0020662108 0.1644237
-0.022682542 -0.0076398477 0.16499124
-0.021710677 -0.0014289843 0.16264495
-0.021872021 -0.0083957529 0.16303447
-0.022042714 0.0073136524 0.16344656
-0.021805882 -0.0026808658 0.16287479
-0.021929206 0.00072269805 0.16317253
-0.021725226 0.0033196204 0.16268007
-0.02337279 -0.01231566 0.16665764
-0.022712097 -0.0030034073 0.16506259
-0.023229906 -0.010371834 0.16631269
-0.02274904 6.6776411e-05 0.16515179
-0.023141675 -0.0057121483 0.16609968
-0.023159994 -0.013528495 0.16614391
-0.022456789 -0.00073982222 0.16444622
-0.022413027 -0.011164108 0.16434057
-0.022634236 -0.013295893 0.16487461
-0.023167575 -0.0082338685 0.16616222
-0.021659624 0.005927878 0.16252169
-0.021967215 -0.0063925572 0.16326429
-0.022388147 -0.0095465891 0.1642805
-0.022815129 -0.0098106731 0.16531134
-0.021703603 -0.011702629 0.16262788
-0.020481871 0.013481282 0.16097683
-0.020102734 0.0031841355 0.16048273
-0.021260504 0.0071667018 0.16199157
-0.020351706 -0.0023543667 0.16080721
-0.019320661 0.011157123 0.15946351
-0.020084845 -0.001051908 0.16045941
-0.019849459 0.008616996 0.16015266
-0.020956555 0.0047949129 0.16159545
-0.021592999 -0.0095710941 0.16242488
-0.021501096 0.012398975 0.16230512
-0.020738596 -0.0039371462 0.1613114
-0.0205852 0.0012905495 0.16111149
-0.019195629 0.0057861288 0.15930057
-0.02025828 0.0077011618 0.16068545
-0.02007217 0.011339332 0.1604429
-0.02079854 -0.0067791594 0.16138953
-0.021233968 -0.0056646075 0.16195698
-0.018493922 0.010130958 0.1583861
-0.019929491 0.01278278 0.16025695
-0.021487171 -0.0076258313 0.16228697
-0.020842219 -0.0082841329 0.16144645
-0.021219773 -0.00051798846 0.16193849
-0.019807603 0.0067522777 0.16009811
-0.017991815 0.013428676 0.15773173
-0.021061394 -0.0025822953 0.16173208
-0.020434437 -0.0055621555 0.16091502
-0.021462534 0.0090426691 0.16225486
-0.021433173 -0.0040294998 0.16221659
-0.021530591 0.001253201 0.16234355
-0.019732697 0.014643547 0.16000049
-0.020946084 0.011143247 0.1615818
-0.019953653 0.0020385545 0.16028845
-0.019214422 0.0097017568 0.15932506
-0.020875763 0.0028358886 0.16149016
-0.018042304 0.014641324 0.15779753
-0.020447413 0.010042989 0.16093193
-0.020317916 2.0100664e-05 0.16076316
-0.021615626 0.014060212 0.16245437
-0.019811628 0.0049725589 0.16010335
-0.019251229 0.01293003 0.15937303
-0.024308193 -0.014530886 0.16974521
-0.024243893 0.0047590807 0.16925679
-0.024474371 -0.013145717 0.17100745
-0.024195904 -0.0038505385 0.16889229
-0.024193775 -0.013066015 0.16887611
-0.024213299 0.0030541492 0.16902441
-0.02470688 -0.011028673 0.17277353
-0.024270732 -0.010581139 0.16946065
-0.024422303 -0.0013681569 0.17061196
-0.024653533 -0.0047907634 0.17236832
-0.024440523 0.0044136676 0.17075035
-0.024238247 -0.0082603125 0.16921392
-0.024318999 0.0082833124 0.16982728
-0.024308182 0.0068127569 0.16974513
-0.024539942 -0.0020411371 0.17150551
-0.024497386 -0.0058262097 0.17118226
-0.024359439 -0.0038169422 0.17013444
-0.024313273 0.00077684567 0.16978379
-0.024180841 -0.0093237441 0.16877787
-0.024266675 -0.002605503 0.16942984
-0.024648141 -0.012820202 0.17232737
-0.024205148 -0.0066353739 0.16896251
-0.024269624 0.0018212742 0.16945224
-0.024318049 -0.01216207 0.16982007
-0.024237424 0.010099975 0.16920766
-0.024588436 -0.0074021271 0.17187387
-0.024548642 -0.014043856 0.1715716
-0.024856083 -0.013627313 0.17390683
-0.024738157 -0.0070493147 0.17301111
-0.024502339 0.0023742958 0.17121989
-0.024627589 -0.0094095469 0.17217125
-0.024381546 -0.0077722501 0.17030238
-0.0247047 -0.014006336 0.17275697
-0.024173304 0.0073978025 0.16872063
-0.024171531 -0.011780892 0.16870716
-0.024273155 -0.0010423176 0.16947907
-0.024318988 -0.0048822802 0.16982719
-0.024377692 -0.0065812734 0.17027311
-0.024564596 -0.0037315027 0.17169277
-0.024641998 -0.0061776908 0.1722807
-0.024207199 0.011894369 0.16897808
-0.024537323 -0.0085047837 0.17148562
-0.024448924 -0.010291793 0.17081417
-0.024529148 -0.011553275 0.17142352
-0.024353947 -0.0095102685 0.17009275
-0.023310363 0.012209369 0.16650693
-0.023465887 0.0080272388 0.16688241
-0.023762256 0.0018132549 0.1675979
-0.022333138 0.0088131903 0.1641477
-0.023425978 -0.0032269401 0.16678606
-0.022827759 0.010105225 0.16534182
-0.023366718 0.0012083093 0.16664299
-0.023246823 0.0035312797 0.16635354
-0.022347514 0.014003261 0.16418241
-0.022676855 0.01183667 0.16497751
-0.023715362 0.0059909052 0.16748469
-0.022926871 0.012975834 0.16558111
-0.023307826 0.0091603678 0.16650081
-0.022011746 0.013109899 0.1633718
-0.02305451 0.0025144585 0.16588925
-0.022186736 0.011834563 0.16379426
-0.02394155 0.00483754 0.16803077
-0.022221422 0.010243995 0.16387799
-0.02311755 0.011233611 0.16604145
-0.022740176 0.0035978253 0.16513038
-0.023865515 0.0088125486 0.1678472
-0.023751972 0.003749059 0.16757308
-0.023277365 -0.00098082377 0.16642727
-0.024030484 -0.0050429292 0.16824546
-0.024031276 -0.0075759571 0.16824737
-0.023723384 0.013678765 0.16750406
-0.022712206 0.0079707187 0.16506286
-0.023345109 -0.0044808686 0.16659082
-0.022876626 0.0013108565 0.1654598
-0.022816932 0.014078476 0.16531569
-0.023015374 0.0052066022 0.16579477
-0.023985555 -0.0016886008 0.168137
-0.023893159 0.012219687 0.16791393
-0.023858204 -0.00055915205 0.16782954
-0.022623625 0.006305634 0.164849
-0.023926275 0.010023119 0.16799387
-0.023520956 0.010551099 0.16701536
-0.023154102 0.0066534039 0.16612969
-0.024022931 -0.0028721357 0.16822723
-0.023561962 -0.0018914841 0.16711435
-0.023589933 -0.0057742209 0.16718188
-0.023667755 -0.0082242126 0.16736975
-0.024982452 0.0034221173 0.17486671
-0.024675505 0.013461498 0.17253521
-0.024521932 0.013126938 0.1713687
-0.024864541 -0.0035197586 0.17397109
-0.024745407 0.0078098699 0.17306615
-0.024179373 0.014156585 0.16876671
-0.024851799 -0.0094565498 0.17387429
-0.024613658 0.0045058057 0.17206544
-0.024945768 0.0082785534 0.17458805
-0.024820186 0.0020804312 0.17363417
-0.024779292 0.01207689 0.17332356
-0.024586806 0.00820015 0.17186148
-0.024925668 0.004640088 0.17443539
-0.024981556 -0.011809302 0.1748599
-0.024994154 -0.0087795984 0.17495559
-0.024412772 0.011322481 0.17053956
-0.024600739 0.00318558 0.17196731
-0.024994642 -0.0046779462 0.1749593
-0.024629183 0.0093513764 0.17218336
-0.024563126 0.00063802866 0.17168161
-0.024761923 0.004967724 0.17319162
-0.024828775 0.0060077864 0.17369941
-0.024290636 0.013448427 0.16961184
-0.024984833 0.0063101822 0.17488478
-0.024858057 -0.0051264958 0.17392184
-0.02467194 -0.0029357143 0.17250814
-0.024790518 0.003781226 0.17340884
-0.024536168 0.010362355 0.17147684
-0.024821125 0.013935954 0.17364131
-0.024378445 0.009356726 0.17027882
-0.024793312 -0.0002951147 0.17343006
-0.024592612 0.01218839 0.17190558
-0.024421522 0.0056041717 0.17060603
-0.024631616 0.0062791961 0.17220184
-0.024820063 -0.0015920866 0.17363323
-0.024665033 -0.0010980265 0.17245567
-0.024685165 0.011025858 0.17260858
-0.024498763 0.014559713 0.17119272
-0.02484234 0.009150235 0.17380245
-0.024881143 -0.0063830265 0.1740972
-0.024721356 0.0011015218 0.1728835
-0.024938485 0.014636774 0.17453274
0.014666366 -0.011718285 0.033665806
0.014667043 -0.013018153 0.03367094
0.014803141 -0.013776006 0.034704711
0.014883517 -0.0069568809 0.035315234
0.014879894 -0.011892682 0.035287704
0.014930286 -0.0029473505 0.03567047
0.01494418 -0.01078449 0.035776012
0.014840177 -0.010041779 0.03498603
0.014865058 -0.015013303 0.035175011
0.014618114 -0.014538914 0.033299286
0.01498198 -0.008165014 0.036063135
0.014856117 -0.0045056455 0.035107102
0.014951869 0.0086724414 0.035834413
0.014972637 0.014217412 0.03599216
0.014671969 0.014950693 0.033708356
0.014826206 0.0068489602 0.034879912
0.014556635 0.01412857 0.032832313
