# .PCD v0.7 - Point Cloud Data file format
VERSION 0.7
FIELDS x y z rgb
SIZE 4 4 4 4
TYPE F F F F
COUNT 1 1 1 1
WIDTH 919
HEIGHT 1
VIEWPOINT 0 0 0 1 0 0 0
POINTS 919
DATA ascii
-0.013116037 -0.014615567 -0.026156912 9.219563e-39
-0.014353725 -0.014545051 -0.026194299 9.219563e-39
-0.015057174 -0.014294104 -0.026327349 9.219563e-39
-0.015226278 -0.015092574 -0.025904007 9.219563e-39
-0.013380954 -0.014112028 -0.026423885 9.219563e-39
-0.010705684 -0.014733734 -0.026094262 9.219563e-39
-0.011687948 -0.014232694 -0.026359908 9.219563e-39
-0.012250559 -0.014172272 -0.026391944 9.219563e-39
-0.0087288618 -0.015079745 -0.025910808 9.219563e-39
-0.015966754 -0.014073739 -0.026444186 9.219563e-39
-0.013427817 -0.015048612 -0.025927315 9.219563e-39
-0.014333436 -0.013502987 -0.026746793 9.219563e-39
-0.015495164 -0.01469324 -0.02611573 9.219563e-39
-0.014043352 -0.014981975 -0.025962645 9.219563e-39
-0.014659862 -0.015059316 -0.025921639 9.219563e-39
-0.015403342 -0.013773598 -0.026603317 9.219563e-39
-0.012091919 -0.016285837 -0.025150249 9.219563e-39
-0.015124065 -0.016926352 -0.024715973 9.219563e-39
-0.0078650825 -0.015740646 -0.025519894 9.219563e-39
-0.010412279 -0.016183261 -0.025219796 9.219563e-39
-0.012309651 -0.016664939 -0.024893213 9.219563e-39
-0.013684684 -0.015766632 -0.025502276 9.219563e-39
-0.013549558 -0.017218539 -0.024517866 9.219563e-39
-0.015738627 -0.016690776 -0.024875695 9.219563e-39
-0.0085360911 -0.01550323 -0.025680866 9.219563e-39
-0.015365141 -0.016261602 -0.025166681 9.219563e-39
-0.0097447028 -0.015613429 -0.025606148 9.219563e-39
-0.01138467 -0.01655112 -0.024970384 9.219563e-39
-0.010379138 -0.015564051 -0.025639629 9.219563e-39
-0.014870582 -0.016134141 -0.0252531 9.219563e-39
-0.013214875 -0.016137877 -0.025250567 9.219563e-39
-0.014530363 -0.017725263 -0.024174303 9.219563e-39
-0.01481487 -0.015560016 -0.025642363 9.219563e-39
-0.010927113 -0.016118305 -0.025263838 9.219563e-39
-0.0083615081 -0.016062573 -0.025301624 9.219563e-39
-0.0070870263 -0.015471242 -0.025702553 9.219563e-39
-0.010835609 -0.016582858 -0.024948865 9.219563e-39
-0.01546157 -0.017751316 -0.024156639 9.219563e-39
-0.0094389617 -0.016038034 -0.025318261 9.219563e-39
-0.014532055 -0.016707135 -0.024864605 9.219563e-39
-0.014280871 -0.016115695 -0.025265606 9.219563e-39
-0.012504715 -0.015843773 -0.025449973 9.219563e-39
-0.0097252894 -0.01644587 -0.025041746 9.219563e-39
-0.012862471 -0.017043181 -0.024636762 9.219563e-39
-0.011667321 -0.015742172 -0.025518861 9.219563e-39
-0.010908324 -0.015606167 -0.025611073 9.219563e-39
-0.014662324 -0.017249083 -0.024497157 9.219563e-39
-0.013832957 -0.01681195 -0.024793539 9.219563e-39
-0.012956345 -0.016592601 -0.02494226 9.219563e-39
-0.0073767728 -0.016282983 -0.025152184 9.219563e-39
-0.015034805 -0.018119179 -0.023907224 9.219563e-39
-0.0080174999 -0.016710754 -0.02486215 9.219563e-39
-0.010769704 -0.017779252 -0.024137698 9.219563e-39
-0.013088735 -0.017852742 -0.02408787 9.219563e-39
-0.010163628 -0.016775684 -0.024818126 9.219563e-39
-0.0096634049 -0.017796956 -0.024125693 9.219563e-39
-0.0066247554 -0.017514465 -0.024317225 9.219563e-39
-0.0060359961 -0.018120931 -0.023906035 9.219563e-39
-0.013934597 -0.017817516 -0.024111755 9.219563e-39
-0.0073362864 -0.0167425 -0.024840627 9.219563e-39
-0.0064290217 -0.01694794 -0.024701336 9.219563e-39
-0.010312888 -0.017315904 -0.024451854 9.219563e-39
-0.0089080716 -0.01791116 -0.024048263 9.219563e-39
-0.0066602342 -0.016187416 -0.02521698 9.219563e-39
-0.0095696524 -0.017061986 -0.024624012 9.219563e-39
-0.0070200716 -0.017090293 -0.02460482 9.219563e-39
-0.0091170855 -0.017421786 -0.024380064 9.219563e-39
-0.008529176 -0.017495735 -0.024329925 9.219563e-39
-0.0072082593 -0.017726339 -0.024173573 9.219563e-39
-0.01271971 -0.017502069 -0.024325632 9.219563e-39
-0.007839812 -0.017743587 -0.024161879 9.219563e-39
-0.011837 -0.017224368 -0.024513915 9.219563e-39
-0.011505737 -0.017970992 -0.024007697 9.219563e-39
-0.0087784827 -0.016715761 -0.024858756 9.219563e-39
-0.013680302 -0.01897959 -0.023182578 9.219563e-39
-0.014657572 -0.020075457 -0.022251768 9.219563e-39
-0.01146222 -0.018412197 -0.023664512 9.219563e-39
-0.0071377251 -0.018204812 -0.023840662 9.219563e-39
-0.013567449 -0.018395877 -0.023678375 9.219563e-39
-0.015522967 -0.019942716 -0.022364518 9.219563e-39
-0.009900949 -0.018231204 -0.023818245 9.219563e-39
-0.014061049 -0.019927895 -0.022377105 9.219563e-39
-0.012331442 -0.018235646 -0.023814471 9.219563e-39
-0.014013426 -0.01861495 -0.023492299 9.219563e-39
-0.009658996 -0.018743725 -0.023382919 9.219563e-39
-0.011469562 -0.019293839 -0.022915661 9.219563e-39
-0.015217236 -0.018610077 -0.023496438 9.219563e-39
-0.014513738 -0.019039528 -0.023131669 9.219563e-39
-0.015611689 -0.018251006 -0.023801425 9.219563e-39
-0.012457679 -0.018779388 -0.023352627 9.219563e-39
-0.012939274 -0.018401569 -0.02367354 9.219563e-39
-0.010364735 -0.0185562 -0.023542197 9.219563e-39
-0.0092288759 -0.018476004 -0.023610316 9.219563e-39
-0.01454076 -0.019495608 -0.022744283 9.219563e-39
-0.010988894 -0.018181449 -0.023860505 9.219563e-39
-0.013246044 -0.018769689 -0.023360865 9.219563e-39
-0.0080962265 -0.018302146 -0.023757987 9.219563e-39
-0.011073104 -0.018727941 -0.023396324 9.219563e-39
-0.01585898 -0.019138835 -0.023047319 9.219563e-39
-0.015227548 -0.019236514 -0.022964353 9.219563e-39
-0.01442048 -0.018237492 -0.023812903 9.219563e-39
-0.013039439 -0.019396501 -0.022828463 9.219563e-39
-0.012507218 -0.019237736 -0.022963315 9.219563e-39
-0.013440516 -0.019737534 -0.022538794 9.219563e-39
-0.011941395 -0.018978244 -0.023183722 9.219563e-39
-0.015982011 -0.019562261 -0.022687668 9.219563e-39
-0.012364858 -0.020511679 -0.021881249 9.219563e-39
-0.0085160686 -0.020541357 -0.021856042 9.219563e-39
-0.0071044546 -0.018883605 -0.023264108 9.219563e-39
-0.0063294698 -0.019277107 -0.022929873 9.219563e-39
-0.015474675 -0.020610929 -0.021796949 9.219563e-39
-0.011769796 -0.020026399 -0.022293439 9.219563e-39
-0.0070137535 -0.020299589 -0.022061395 9.219563e-39
-0.009732916 -0.020492587 -0.021897467 9.219563e-39
-0.012158917 -0.019722581 -0.022551496 9.219563e-39
-0.014940408 -0.020452866 -0.021931205 9.219563e-39
-0.0094237505 -0.020132966 -0.022202922 9.219563e-39
-0.0080169803 -0.0201516 -0.022187095 9.219563e-39
-0.0090343626 -0.020501954 -0.02188951 9.219563e-39
-0.010575579 -0.020385748 -0.021988213 9.219563e-39
-0.0083199935 -0.018830802 -0.023308957 9.219563e-39
-0.0076892623 -0.018603841 -0.023501733 9.219563e-39
-0.011684828 -0.020543113 -0.02185455 9.219563e-39
-0.0083517777 -0.019244732 -0.022957372 9.219563e-39
-0.011165165 -0.020046921 -0.022276007 9.219563e-39
-0.010257654 -0.019951444 -0.022357102 9.219563e-39
-0.006542136 -0.019666173 -0.022599408 9.219563e-39
-0.013652006 -0.020519027 -0.021875009 9.219563e-39
-0.00801236 -0.019580742 -0.022671971 9.219563e-39
-0.007322337 -0.019761929 -0.022518074 9.219563e-39
-0.0099185361 -0.019535854 -0.022710098 9.219563e-39
-0.0093107615 -0.019047501 -0.023124898 9.219563e-39
-0.013044556 -0.020525714 -0.02186933 9.219563e-39
-0.013264718 -0.020165244 -0.022175506 9.219563e-39
-0.010623031 -0.019331867 -0.022883361 9.219563e-39
-0.0060345964 -0.019714778 -0.022558125 9.219563e-39
-0.0064518759 -0.020344419 -0.022023316 9.219563e-39
-0.0065858285 -0.018346896 -0.023719978 9.219563e-39
-0.0075887553 -0.019059435 -0.023114761 9.219563e-39
-0.0088995565 -0.019450797 -0.022782344 9.219563e-39
-0.012667954 -0.020126335 -0.022208555 9.219563e-39
-0.0064911684 -0.018781325 -0.023350982 9.219563e-39
-0.0089323958 -0.019896915 -0.022403419 9.219563e-39
-0.014598014 -0.021149158 -0.021232888 9.219563e-39
-0.010621101 -0.020991689 -0.021399125 9.219563e-39
-0.0090282373 -0.021235188 -0.021142067 9.219563e-39
-0.009791051 -0.021279704 -0.021095071 9.219563e-39
-0.014886846 -0.022581819 -0.019720444 9.219563e-39
-0.012617397 -0.021737663 -0.02061161 9.219563e-39
-0.011788067 -0.021516062 -0.020845553 9.219563e-39
-0.015153919 -0.021769419 -0.020578086 9.219563e-39
-0.013486535 -0.021364663 -0.021005383 9.219563e-39
-0.012867578 -0.02211795 -0.020210145 9.219563e-39
-0.013968221 -0.022209268 -0.020113744 9.219563e-39
-0.011838628 -0.021916103 -0.020423235 9.219563e-39
-0.013877625 -0.021771321 -0.020576078 9.219563e-39
-0.015150077 -0.021397669 -0.020970538 9.219563e-39
-0.010050309 -0.020790869 -0.02161113 9.219563e-39
-0.0079207756 -0.020734629 -0.021670502 9.219563e-39
-0.009520974 -0.020872688 -0.021524753 9.219563e-39
-0.015107277 -0.020973014 -0.02141884 9.219563e-39
-0.014391526 -0.021753399 -0.020594997 9.219563e-39
-0.015355644 -0.022266306 -0.020053528 9.219563e-39
-0.012655298 -0.021211654 -0.021166911 9.219563e-39
-0.013349671 -0.0219671 -0.020369397 9.219563e-39
-0.010189221 -0.021514963 -0.020846711 9.219563e-39
-0.015523375 -0.022644784 -0.019653974 9.219563e-39
-0.014204859 -0.020718709 -0.021687308 9.219563e-39
-0.012196929 -0.020878747 -0.021518357 9.219563e-39
-0.011318987 -0.021154681 -0.021227058 9.219563e-39
-0.014530559 -0.022289999 -0.020028517 9.219563e-39
-0.014007017 -0.021137694 -0.021244992 9.219563e-39
-0.0065814378 -0.022667496 -0.019629998 9.219563e-39
-0.014237064 -0.022616515 -0.019683817 9.219563e-39
-0.0087393802 -0.022718681 -0.019575963 9.219563e-39
-0.0069807172 -0.021007137 -0.021382816 9.219563e-39
-0.01299834 -0.022523982 -0.019781502 9.219563e-39
-0.0073986161 -0.021492885 -0.020870019 9.219563e-39
-0.010663572 -0.02266293 -0.019634817 9.219563e-39
-0.0067024892 -0.021366868 -0.021003054 9.219563e-39
-0.00606531 -0.021995381 -0.020339541 9.219563e-39
-0.012483813 -0.022652825 -0.019645484 9.219563e-39
-0.0097197015 -0.022764251 -0.019527854 9.219563e-39
-0.010031544 -0.022124672 -0.020203048 9.219563e-39
-0.011327743 -0.022855666 -0.019431349 9.219563e-39
-0.0081775291 -0.022197602 -0.020126058 9.219563e-39
-0.011255194 -0.022440301 -0.019869845 9.219563e-39
-0.0061142212 -0.020822924 -0.021577289 9.219563e-39
-0.0071840729 -0.022755569 -0.019537019 9.219563e-39
-0.011899462 -0.022782704 -0.019508373 9.219563e-39
-0.010840256 -0.021731257 -0.020618372 9.219563e-39
-0.0077657108 -0.021927068 -0.020411657 9.219563e-39
-0.0092174904 -0.022170175 -0.020155013 9.219563e-39
-0.0077769039 -0.0228083 -0.019481352 9.219563e-39
-0.0081957979 -0.022563478 -0.019739809 9.219563e-39
-0.0083757499 -0.021697978 -0.020653507 9.219563e-39
-0.0077547291 -0.021197379 -0.021181982 9.219563e-39
-0.0075710225 -0.02246476 -0.019844024 9.219563e-39
-0.0084115351 -0.021222992 -0.021154942 9.219563e-39
-0.0069289701 -0.022042178 -0.020290138 9.219563e-39
-0.010151628 -0.022507152 -0.01979927 9.219563e-39
-0.010765566 -0.022217209 -0.02010536 9.219563e-39
-0.0093169585 -0.021577107 -0.020781109 9.219563e-39
-0.0060871812 -0.022348966 -0.019966265 9.219563e-39
-0.012025618 -0.022428652 -0.019882141 9.219563e-39
-0.014029424 -0.023380693 -0.018743077 9.219563e-39
-0.015898176 -0.023039153 -0.019192372 9.219563e-39
-0.01599043 -0.023926752 -0.018024739 9.219563e-39
-0.014839975 -0.023815928 -0.01817053 9.219563e-39
-0.011779371 -0.023592887 -0.018463938 9.219563e-39
-0.0085904859 -0.023094613 -0.019119414 9.219563e-39
-0.0093440749 -0.023287129 -0.018866161 9.219563e-39
-0.013282527 -0.022894064 -0.019383235 9.219563e-39
-0.015533381 -0.023591613 -0.018465614 9.219563e-39
-0.01043161 -0.023703709 -0.018318152 9.219563e-39
-0.015937187 -0.024523279 -0.017240012 9.219563e-39
-0.013300363 -0.023690885 -0.01833502 9.219563e-39
-0.012996274 -0.023256488 -0.018906469 9.219563e-39
-0.015370139 -0.023283061 -0.018871514 9.219563e-39
-0.012530559 -0.023999961 -0.017928435 9.219563e-39
-0.011825724 -0.023130793 -0.019071819 9.219563e-39
-0.012754239 -0.023562804 -0.018503513 9.219563e-39
-0.010404866 -0.023203876 -0.018975681 9.219563e-39
-0.012435089 -0.023224745 -0.018948225 9.219563e-39
-0.01473044 -0.023366326 -0.018761978 9.219563e-39
-0.013501365 -0.024286659 -0.017551284 9.219563e-39
-0.015439832 -0.023940252 -0.01800698 9.219563e-39
-0.014181545 -0.02426368 -0.017581513 9.219563e-39
-0.011210464 -0.023730073 -0.01828347 9.219563e-39
-0.014230059 -0.023844691 -0.018132692 9.219563e-39
-0.014781846 -0.024436934 -0.0173536 9.219563e-39
-0.014121795 -0.023014871 -0.019224314 9.219563e-39
-0.009649762 -0.023533134 -0.018542543 9.219563e-39
-0.01483304 -0.023026461 -0.019209068 9.219563e-39
-0.0077923508 -0.024166308 -0.017709604 9.219563e-39
-0.01025139 -0.024472045 -0.01730741 9.219563e-39
-0.0091066845 -0.024014678 -0.017909074 9.219563e-39
-0.0084409993 -0.024813361 -0.016858408 9.219563e-39
-0.012346157 -0.024723521 -0.016976597 9.219563e-39
-0.0073365248 -0.023613367 -0.018436996 9.219563e-39
-0.0092148501 -0.024827737 -0.016839499 9.219563e-39
-0.0096172504 -0.02425015 -0.017599311 9.219563e-39
-0.011361822 -0.0248028 -0.016872302 9.219563e-39
-0.010951886 -0.024538837 -0.017219545 9.219563e-39
-0.0079369796 -0.024739871 -0.016955087 9.219563e-39
-0.012878018 -0.024226621 -0.017630264 9.219563e-39
-0.0063219885 -0.024077144 -0.017826902 9.219563e-39
-0.0067442576 -0.024645817 -0.017078815 9.219563e-39
-0.0067291553 -0.023647355 -0.018392285 9.219563e-39
-0.0088541312 -0.024527285 -0.017234741 9.219563e-39
-0.0072514405 -0.024330797 -0.017493222 9.219563e-39
-0.0066352673 -0.023075577 -0.019144455 9.219563e-39
-0.015017635 -0.024824947 -0.016843168 9.219563e-39
-0.0073693786 -0.023946742 -0.017998442 9.219563e-39
-0.014298262 -0.024825286 -0.016842725 9.219563e-39
-0.0075579304 -0.023217922 -0.018957201 9.219563e-39
-0.0099927112 -0.02396046 -0.017980397 9.219563e-39
-0.010851437 -0.023984203 -0.017949164 9.219563e-39
-0.0088551827 -0.023645323 -0.018394958 9.219563e-39
-0.0069250991 -0.02335923 -0.018771311 9.219563e-39
-0.01334745 -0.024701148 -0.017006025 9.219563e-39
-0.0060919765 -0.023002518 -0.019240566 9.219563e-39
-0.011777868 -0.024552314 -0.017201817 9.219563e-39
-0.0079333475 -0.023700235 -0.018322719 9.219563e-39
-0.008150802 -0.024429647 -0.017363183 9.219563e-39
-0.011966713 -0.024058416 -0.017851535 9.219563e-39
-0.013192645 -0.025861608 -0.015122262 9.219563e-39
-0.0066912984 -0.026400458 -0.01422671 9.219563e-39
-0.014834412 -0.025632873 -0.015502413 9.219563e-39
-0.014108784 -0.025342416 -0.015985144 9.219563e-39
-0.012284648 -0.026145462 -0.014650506 9.219563e-39
-0.013138033 -0.02644795 -0.014147781 9.219563e-39
-0.011198053 -0.026417948 -0.014197641 9.219563e-39
-0.014682569 -0.026244862 -0.014485304 9.219563e-39
-0.012293791 -0.025845498 -0.015149035 9.219563e-39
-0.014938273 -0.025946818 -0.014980644 9.219563e-39
-0.015783815 -0.025278447 -0.016091458 9.219563e-39
-0.01372277 -0.026288928 -0.014412067 9.219563e-39
-0.01420748 -0.026070246 -0.014775513 9.219563e-39
-0.0093767308 -0.026168827 -0.014611673 9.219563e-39
-0.014777544 -0.025307778 -0.016042711 9.219563e-39
-0.0075903544 -0.026465001 -0.014119443 9.219563e-39
-0.013390923 -0.025346119 -0.01597899 9.219563e-39
-0.0089661973 -0.026503576 -0.014055329 9.219563e-39
-0.010064706 -0.025995325 -0.01490003 9.219563e-39
-0.011025905 -0.025915362 -0.015032926 9.219563e-39
-0.013063149 -0.026175786 -0.014600107 9.219563e-39
-0.011611289 -0.025766494 -0.01528034 9.219563e-39
-0.0085817752 -0.02614684 -0.014648215 9.219563e-39
-0.012984058 -0.025557341 -0.015627945 9.219563e-39
-0.0096895741 -0.026391627 -0.014241386 9.219563e-39
-0.013799767 -0.025719214 -0.015358917 9.219563e-39
-0.015224064 -0.026389826 -0.01424438 9.219563e-39
-0.015753541 -0.024910985 -0.016702171 9.219563e-39
-0.010717385 -0.026137665 -0.014663463 9.219563e-39
-0.015766205 -0.025564929 -0.015615334 9.219563e-39
-0.0081074005 -0.026443319 -0.014155474 9.219563e-39
-0.011849795 -0.026394539 -0.014236546 9.219563e-39
-0.011412772 -0.026094705 -0.014734862 9.219563e-39
-0.0097069098 -0.025408352 -0.015875561 9.219563e-39
-0.010288182 -0.025199028 -0.016223453 9.219563e-39
-0.0062551014 -0.025523264 -0.01568458 9.219563e-39
-0.011359219 -0.025209442 -0.016206143 9.219563e-39
-0.0060975547 -0.025240423 -0.016154654 9.219563e-39
-0.0064032078 -0.025840977 -0.01515655 9.219563e-39
-0.0060598138 -0.026384698 -0.014252903 9.219563e-39
-0.0077549117 -0.025959881 -0.014958937 9.219563e-39
-0.0077833086 -0.025650227 -0.015473572 9.219563e-39
-0.010521961 -0.02553246 -0.015669297 9.219563e-39
-0.0082195597 -0.025253177 -0.016133457 9.219563e-39
-0.00696625 -0.025613274 -0.015534987 9.219563e-39
-0.0090384623 -0.025420615 -0.015855178 9.219563e-39
-0.0074273241 -0.026182912 -0.014588264 9.219563e-39
-0.0097510908 -0.025144231 -0.016314523 9.219563e-39
-0.007316723 -0.025327126 -0.016010556 9.219563e-39
-0.0099765882 -0.024866004 -0.016776927 9.219563e-39
-0.0094351713 -0.02582437 -0.01518415 9.219563e-39
-0.010835373 -0.024938498 -0.016656443 9.219563e-39
-0.011027232 -0.025477402 -0.0157608 9.219563e-39
-0.0069210934 -0.02516266 -0.016283894 9.219563e-39
-0.008967611 -0.025709705 -0.01537472 9.219563e-39
-0.012932938 -0.024921423 -0.016684821 9.219563e-39
-0.0077250758 -0.025061391 -0.016452201 9.219563e-39
-0.0063970536 -0.024970744 -0.016602853 9.219563e-39
-0.0073270174 -0.024844414 -0.016812811 9.219563e-39
-0.0083176168 -0.025711995 -0.015370917 9.219563e-39
-0.0087883919 -0.025091039 -0.016402924 9.219563e-39
-0.011947506 -0.025187436 -0.016242716 9.219563e-39
-0.012635001 -0.025261421 -0.016119756 9.219563e-39
-0.01094423 -0.02664936 -0.013741117 9.219563e-39
-0.014200578 -0.02681713 -0.013378465 9.219563e-39
-0.01552881 -0.027181869 -0.012590048 9.219563e-39
-0.011941259 -0.027180646 -0.012592695 9.219563e-39
-0.0094815064 -0.026642092 -0.013756829 9.219563e-39
-0.014946134 -0.027223194 -0.012500719 9.219563e-39
-0.015274088 -0.027669558 -0.011535864 9.219563e-39
-0.012558127 -0.027056018 -0.012862088 9.219563e-39
-0.012659594 -0.026785765 -0.013446265 9.219563e-39
-0.015956886 -0.027019251 -0.012941563 9.219563e-39
-0.010499065 -0.026518442 -0.01402411 9.219563e-39
-0.0089783417 -0.026851062 -0.013305117 9.219563e-39
-0.01121385 -0.026887931 -0.013225423 9.219563e-39
-0.014345396 -0.027078737 -0.012812977 9.219563e-39
-0.014267812 -0.026526231 -0.014007272 9.219563e-39
-0.0102003 -0.027072033 -0.012827467 9.219563e-39
-0.0085026352 -0.02662581 -0.013792019 9.219563e-39
-0.015734043 -0.026747767 -0.013528401 9.219563e-39
-0.011705084 -0.026734101 -0.01355794 9.219563e-39
-0.015830729 -0.027698882 -0.011472476 9.219563e-39
-0.013512842 -0.026941458 -0.013109718 9.219563e-39
-0.015367673 -0.026918259 -0.013159868 9.219563e-39
-0.012806379 -0.027322045 -0.012287044 9.219563e-39
-0.012271231 -0.026579732 -0.013891623 9.219563e-39
-0.015174989 -0.027431175 -0.012051151 9.219563e-39
-0.014446635 -0.027403427 -0.012111128 9.219563e-39
-0.011251424 -0.02711002 -0.012745357 9.219563e-39
-0.010164414 -0.026808441 -0.013397247 9.219563e-39
-0.0096632168 -0.02690329 -0.013192222 9.219563e-39
-0.013446075 -0.027262375 -0.012416027 9.219563e-39
-0.015796691 -0.027412649 -0.012091196 9.219563e-39
-0.015023815 -0.026737029 -0.013551611 9.219563e-39
-0.0067423629 -0.026905468 -0.013187514 9.219563e-39
-0.012568947 -0.027710415 -0.011447546 9.219563e-39
-0.0079368986 -0.027788512 -0.011278733 9.219563e-39
-0.0095437458 -0.027696507 -0.011477611 9.219563e-39
-0.0081571825 -0.027169753 -0.012616237 9.219563e-39
-0.0066712373 -0.026679698 -0.013675536 9.219563e-39
-0.012292488 -0.027417356 -0.01208102 9.219563e-39
-0.0067109205 -0.027139766 -0.012681057 9.219563e-39
-0.0066550258 -0.02769818 -0.011473995 9.219563e-39
-0.01471453 -0.027846029 -0.011154406 9.219563e-39
-0.010042649 -0.027503222 -0.011895414 9.219563e-39
-0.0096352464 -0.027152341 -0.012653878 9.219563e-39
-0.0071898028 -0.027060833 -0.012851681 9.219563e-39
-0.011628288 -0.027622392 -0.011637817 9.219563e-39
-0.010457113 -0.027697191 -0.011476133 9.219563e-39
-0.0074798758 -0.026753269 -0.013516505 9.219563e-39
-0.0088828932 -0.027127106 -0.012708425 9.219563e-39
-0.01344241 -0.027865155 -0.011113063 9.219563e-39
-0.0080357827 -0.026874006 -0.013255524 9.219563e-39
-0.010801617 -0.027347287 -0.012232481 9.219563e-39
-0.0077449577 -0.027567185 -0.011757152 9.219563e-39
-0.01397479 -0.02769345 -0.011484216 9.219563e-39
-0.0061951149 -0.02684772 -0.013312344 9.219563e-39
-0.0060938438 -0.027104966 -0.012756279 9.219563e-39
-0.0134647 -0.027623644 -0.011635109 9.219563e-39
-0.0084969001 -0.027382024 -0.012157397 9.219563e-39
-0.008709766 -0.027653385 -0.011570822 9.219563e-39
-0.0062982892 -0.027531005 -0.011835357 9.219563e-39
-0.0071670152 -0.027390063 -0.012140019 9.219563e-39
-0.011447467 -0.027847391 -0.011151463 9.219563e-39
-0.0076482287 -0.02795295 -0.01085584 9.219563e-39
-0.010571423 -0.028065564 -0.010521621 9.219563e-39
-0.013084191 -0.028397739 -0.0095357755 9.219563e-39
-0.015163276 -0.028650161 -0.008786629 9.219563e-39
-0.008744319 -0.028007904 -0.010692747 9.219563e-39
-0.010981629 -0.028183859 -0.010170538 9.219563e-39
-0.011432034 -0.028050177 -0.010567287 9.219563e-39
-0.015292428 -0.027888218 -0.011047956 9.219563e-39
-0.012116031 -0.028245429 -0.0099878106 9.219563e-39
-0.014850186 -0.028122503 -0.010352636 9.219563e-39
-0.010884452 -0.027921785 -0.010948339 9.219563e-39
-0.014291398 -0.028579399 -0.0089966357 9.219563e-39
-0.013544822 -0.028586382 -0.0089759091 9.219563e-39
-0.01031226 -0.027917223 -0.010961876 9.219563e-39
-0.0066199582 -0.027923604 -0.010942937 9.219563e-39
-0.014174368 -0.028118076 -0.010365772 9.219563e-39
-0.015928676 -0.027930595 -0.010922191 9.219563e-39
-0.012135155 -0.027872222 -0.011095434 9.219563e-39
-0.012844161 -0.027962875 -0.010826387 9.219563e-39
-0.015474963 -0.028301522 -0.009821333 9.219563e-39
-0.01163216 -0.028343458 -0.0096968776 9.219563e-39
-0.015013197 -0.028423376 -0.0094596855 9.219563e-39
-0.0091100279 -0.027886707 -0.011052438 9.219563e-39
-0.013002069 -0.028149847 -0.01027148 9.219563e-39
-0.015964774 -0.028378099 -0.0095940642 9.219563e-39
-0.010227968 -0.028292825 -0.0098471465 9.219563e-39
-0.0097394641 -0.028037362 -0.010605321 9.219563e-39
-0.013603968 -0.028138293 -0.010305773 9.219563e-39
-0.015999267 -0.028767467 -0.0084384819 9.219563e-39
-0.014058956 -0.028348273 -0.0096825864 9.219563e-39
-0.013078384 -0.028873291 -0.0081244083 9.219563e-39
-0.010482253 -0.028759584 -0.0084618758 9.219563e-39
-0.0082241232 -0.028325262 -0.0097508756 9.219563e-39
-0.011376969 -0.028864302 -0.0081510898 9.219563e-39
-0.010124247 -0.028476758 -0.009301262 9.219563e-39
-0.012200065 -0.028518397 -0.0091776801 9.219563e-39
-0.008484331 -0.028770771 -0.0084286714 9.219563e-39
-0.011089725 -0.028631035 -0.0088433893 9.219563e-39
-0.0068303114 -0.028876813 -0.0081139542 9.219563e-39
-0.0092345653 -0.028796691 -0.0083517432 9.219563e-39
-0.011511268 -0.028523503 -0.0091625266 9.219563e-39
-0.0087461863 -0.028269593 -0.0099160951 9.219563e-39
-0.0069570662 -0.028422303 -0.0094628697 9.219563e-39
-0.010676877 -0.028411089 -0.0094961552 9.219563e-39
-0.012270482 -0.028730737 -0.0085474905 9.219563e-39
-0.012925316 -0.028700085 -0.0086384602 9.219563e-39
-0.0092075355 -0.028621409 -0.0088719549 9.219563e-39
-0.0079453625 -0.028616823 -0.008885568 9.219563e-39
-0.0060085766 -0.02875405 -0.0084783016 9.219563e-39
-0.0082711689 -0.028105821 -0.010402145 9.219563e-39
-0.007189793 -0.0282159 -0.010075446 9.219563e-39
-0.014809608 -0.028842321 -0.0082163224 9.219563e-39
-0.007691185 -0.028383469 -0.0095781246 9.219563e-39
-0.0097577451 -0.028779095 -0.008403969 9.219563e-39
-0.01189482 -0.028875547 -0.0081177158 9.219563e-39
-0.0070694243 -0.028668894 -0.0087310309 9.219563e-39
-0.0085609071 -0.028502213 -0.0092257122 9.219563e-39
-0.0094587542 -0.028350731 -0.0096752848 9.219563e-39
-0.013550957 -0.028804276 -0.0083292369 9.219563e-39
-0.013391246 -0.029167552 -0.0068398868 9.219563e-39
-0.014642727 -0.029469039 -0.005470227 9.219563e-39
-0.015535427 -0.029343575 -0.0060402113 9.219563e-39
-0.011357912 -0.029230358 -0.0065545556 9.219563e-39
-0.011072248 -0.02906795 -0.0072923815 9.219563e-39
-0.01538798 -0.029060328 -0.0073270062 9.219563e-39
-0.014640653 -0.029089525 -0.0071943654 9.219563e-39
-0.013810721 -0.029304195 -0.0062191156 9.219563e-39
-0.010083934 -0.029078919 -0.0072425436 9.219563e-39
-0.013840857 -0.028948553 -0.007834807 9.219563e-39
-0.015874116 -0.029121365 -0.0070497147 9.219563e-39
-0.015494128 -0.029508622 -0.0052904002 9.219563e-39
-0.010902797 -0.028929923 -0.0079194391 9.219563e-39
-0.012337781 -0.028973054 -0.0077234949 9.219563e-39
-0.010794806 -0.029192314 -0.0067273914 9.219563e-39
-0.012286143 -0.029196955 -0.0067063035 9.219563e-39
-0.0090042604 -0.028981516 -0.0076850471 9.219563e-39
-0.014049927 -0.029052593 -0.0073621511 9.219563e-39
-0.015487724 -0.029204099 -0.006673858 9.219563e-39
-0.009103002 -0.029101886 -0.0071382043 9.219563e-39
-0.014026989 -0.029188262 -0.0067457957 9.219563e-39
-0.0071988883 -0.028968129 -0.0077458662 9.219563e-39
-0.012119307 -0.029085843 -0.0072110933 9.219563e-39
-0.01491247 -0.028994611 -0.0076255621 9.219563e-39
-0.012685867 -0.029090514 -0.007189868 9.219563e-39
-0.012857649 -0.029286716 -0.0062985211 9.219563e-39
-0.0084364722 -0.028973399 -0.0077219261 9.219563e-39
-0.010579539 -0.029032646 -0.0074527636 9.219563e-39
-0.014889779 -0.029298136 -0.0062466399 9.219563e-39
-0.01540604 -0.028926853 -0.0079333829 9.219563e-39
-0.01432644 -0.029345801 -0.0060300981 9.219563e-39
-0.0078700166 -0.028954554 -0.0078075384 9.219563e-39
-0.013858309 -0.029448129 -0.0055652154 9.219563e-39
-0.0064164218 -0.029127926 -0.0070199124 9.219563e-39
-0.009354312 -0.029206078 -0.0066648568 9.219563e-39
-0.0090608718 -0.029532015 -0.0051841261 9.219563e-39
-0.012957255 -0.029441075 -0.0055972612 9.219563e-39
-0.0099845361 -0.02940163 -0.005776464 9.219563e-39
-0.011866096 -0.029316757 -0.0061620483 9.219563e-39
-0.012088779 -0.029507438 -0.0052957768 9.219563e-39
-0.0080936691 -0.029059963 -0.0073286663 9.219563e-39
-0.0083628204 -0.029178409 -0.006790563 9.219563e-39
-0.011205135 -0.029352248 -0.0060008126 9.219563e-39
-0.0064678849 -0.028987797 -0.0076565198 9.219563e-39
-0.01059324 -0.029412514 -0.005727021 9.219563e-39
-0.013704589 -0.029577855 -0.0049758693 9.219563e-39
-0.006848197 -0.029184634 -0.0067622857 9.219563e-39
-0.0086202025 -0.029597426 -0.0048869601 9.219563e-39
-0.010655258 -0.029560236 -0.0050559146 9.219563e-39
-0.013159874 -0.029563401 -0.0050415364 9.219563e-39
-0.011149263 -0.029504016 -0.0053113257 9.219563e-39
-0.0076597417 -0.029488737 -0.0053807367 9.219563e-39
-0.0096026883 -0.029486051 -0.0053929379 9.219563e-39
-0.0085741635 -0.029436689 -0.0056171925 9.219563e-39
-0.011590022 -0.029572815 -0.0049987682 9.219563e-39
-0.0073667746 -0.029317245 -0.0061598276 9.219563e-39
-0.011686525 -0.029421072 -0.0056881378 9.219563e-39
-0.010178509 -0.029277371 -0.0063409763 9.219563e-39
-0.0062518548 -0.029490316 -0.0053735632 9.219563e-39
-0.0072129644 -0.029081274 -0.0072318534 9.219563e-39
-0.0092294188 -0.029379437 -0.0058772881 9.219563e-39
-0.0076328451 -0.029155642 -0.0068939929 9.219563e-39
-0.0070187757 -0.029552896 -0.0050892658 9.219563e-39
-0.0066125439 -0.029312337 -0.006182129 9.219563e-39
-0.0071024317 -0.029417409 -0.0057047829 9.219563e-39
-0.0087764421 -0.029301096 -0.0062331911 9.219563e-39
-0.0071136979 -0.029745363 -0.0035609787 9.219563e-39
-0.0063110869 -0.029901462 -0.002125646 9.219563e-39
-0.0094310464 -0.029645257 -0.0044814679 9.219563e-39
-0.0076069473 -0.029787268 -0.0031756531 9.219563e-39
-0.0068871966 -0.029656652 -0.0043766773 9.219563e-39
-0.0079932977 -0.029624522 -0.0046721259 9.219563e-39
-0.014711982 -0.029624153 -0.0046755122 9.219563e-39
-0.010426421 -0.029749041 -0.0035271542 9.219563e-39
-0.008869445 -0.029670481 -0.0042495192 9.219563e-39
-0.011335588 -0.029666981 -0.0042817034 9.219563e-39
-0.0064354539 -0.029780155 -0.003241071 9.219563e-39
-0.0089504328 -0.02974681 -0.0035476759 9.219563e-39
-0.0064959279 -0.029700765 -0.0039710533 9.219563e-39
-0.0075119147 -0.029872634 -0.0023907225 9.219563e-39
-0.0096005658 -0.029782282 -0.0032215146 9.219563e-39
-0.0063406364 -0.029646046 -0.0044741984 9.219563e-39
-0.0075240689 -0.029694417 -0.0040294244 9.219563e-39
-0.0099117402 -0.029607652 -0.0048272409 9.219563e-39
-0.0090927174 -0.029839328 -0.0026969709 9.219563e-39
-0.0071029561 -0.029838344 -0.0027060101 9.219563e-39
-0.008409 -0.029850999 -0.0025896598 9.219563e-39
-0.012468459 -0.029673221 -0.0042243232 9.219563e-39
-0.0083523914 -0.029762289 -0.0034053442 9.219563e-39
-0.012230638 -0.029620377 -0.004710224 9.219563e-39
-0.011926929 -0.029726148 -0.0037376722 9.219563e-39
-0.013848868 -0.029670313 -0.0042510652 9.219563e-39
-0.009581659 -0.029703343 -0.0039473525 9.219563e-39
-0.0074114846 -0.029626304 -0.0046557239 9.219563e-39
-0.010974425 -0.029732732 -0.0036771181 9.219563e-39
-0.013059244 -0.029675184 -0.0042062728 9.219563e-39
-0.0081578903 -0.029677274 -0.0041870624 9.219563e-39
-0.010761761 -0.029638577 -0.0045428779 9.219563e-39
-0.014410612 -0.029701903 -0.0039605987 9.219563e-39
-0.013147594 -0.029740747 -0.0036034256 9.219563e-39
-0.015537369 -0.029624989 -0.0046678158 9.219563e-39
-0.014571107 -0.02990537 -0.0020897263 9.219563e-39
-0.0098646563 -0.029851593 -0.0025841983 9.219563e-39
-0.0069416594 -0.029946594 -0.001710662 9.219563e-39
-0.014679896 -0.029814322 -0.0029269042 9.219563e-39
-0.010373816 -0.029819118 -0.0028828089 9.219563e-39
-0.011860372 -0.029819213 -0.0028819379 9.219563e-39
-0.0085965404 -0.029943727 -0.0017370229 9.219563e-39
-0.011194157 -0.029887911 -0.0022502528 9.219563e-39
-0.013695744 -0.029725747 -0.0037413449 9.219563e-39
-0.010933816 -0.029797323 -0.0030832093 9.219563e-39
-0.010653676 -0.029893709 -0.0021969306 9.219563e-39
-0.012390568 -0.029931702 -0.001847588 9.219563e-39
-0.0077222208 -0.029935058 -0.0018167249 9.219563e-39
-0.015443619 -0.029846683 -0.0026293416 9.219563e-39
-0.015905708 -0.029665994 -0.0042907861 9.219563e-39
-0.01472654 -0.029751979 -0.0035001468 9.219563e-39
-0.014940896 -0.029700678 -0.0039718626 9.219563e-39
-0.015962161 -0.029783489 -0.0032104107 9.219563e-39
-0.013527179 -0.029833937 -0.0027465476 9.219563e-39
-0.010219741 -0.029955408 -0.0016296166 9.219563e-39
-0.015532948 -0.029715998 -0.0038309856 9.219563e-39
-0.013943667 -0.029927013 -0.0018907065 9.219563e-39
-0.012748018 -0.029811647 -0.0029514981 9.219563e-39
-0.014076893 -0.029831266 -0.0027710975 9.219563e-39
-0.0091993595 -0.029928096 -0.0018807503 9.219563e-39
-0.011439193 -0.029937867 -0.0017908966 9.219563e-39
-0.013188365 -0.02990008 -0.0021383623 9.219563e-39
-0.015081811 -0.029916529 -0.0019871059 9.219563e-39
-0.011794332 -0.029877307 -0.0023477604 9.219563e-39
-0.014141861 -0.029956 -0.00083512848 9.219563e-39
-0.012546814 -0.029956 0.00022752132 9.219563e-39
-0.0096441247 -0.029956 -0.00088468747 9.219563e-39
-0.01542836 -0.029956 0.0013667382 9.219563e-39
-0.012996262 -0.029956 -0.00024862381 9.219563e-39
-0.01254172 -0.029956 -0.0012878546 9.219563e-39
-0.012242317 -0.029956 -0.00062288705 9.219563e-39
-0.014489186 -0.029956 -0.0013712456 9.219563e-39
-0.011098574 -0.029956 -0.0013180282 9.219563e-39
-0.012882451 -0.029956 -0.00076779473 9.219563e-39
-0.013329131 -0.029956 -0.0013102936 9.219563e-39
-0.010601564 -0.029956 -0.0011522297 9.219563e-39
-0.0093375565 -0.029956 -0.0013027939 9.219563e-39
-0.0089884242 -0.029956 -0.00081854832 9.219563e-39
-0.01364737 -0.029956 -0.0001174575 9.219563e-39
-0.014615015 -0.029956 0.00095446623 9.219563e-39
-0.015896965 -0.029956 0.00042089805 9.219563e-39
-0.010203424 -0.029956 -0.00044815388 9.219563e-39
-0.011485276 -0.029956 -0.00053997297 9.219563e-39
-0.01522012 -0.029956 0.00027221083 9.219563e-39
-0.015029897 -0.029956 -0.0013044777 9.219563e-39
-0.011145748 -0.029956 -0.00012611329 9.219563e-39
-0.013120811 -0.029956 0.00036788624 9.219563e-39
-0.014624093 -0.029956 -0.00037285438 9.219563e-39
-0.014140405 -0.029956 0.00038418054 9.219563e-39
-0.014647566 -0.029956 0.00025360435 9.219563e-39
-0.015320055 -0.029956 -0.00072654424 9.219563e-39
-0.011923605 -0.029956 -0.0012903499 9.219563e-39
-0.0080812024 -0.029956 -0.0013353488 9.219563e-39
-0.0086314734 -0.029956 0.0011500829 9.219563e-39
-0.0068835341 -0.029956 0.00076552684 9.219563e-39
-0.0073776627 -0.029956 -0.0011228659 9.219563e-39
-0.011528865 -0.029956 0.00026768536 9.219563e-39
-0.0067360937 -0.029956 -0.0011953597 9.219563e-39
-0.0089663258 -0.029956 0.0015719915 9.219563e-39
-0.011816792 -0.029956 0.00090183341 9.219563e-39
-0.0095672021 -0.029956 0.00025262052 9.219563e-39
-0.010794678 -0.029956 0.00077779451 9.219563e-39
-0.0060940078 -0.029956 -0.001186555 9.219563e-39
-0.01069684 -0.029956 0.00022630605 9.219563e-39
-0.0086121932 -0.029956 0.0001908867 9.219563e-39
-0.0091542779 -0.029956 -0.0002436833 9.219563e-39
-0.011455392 -0.029956 0.0014835921 9.219563e-39
-0.0073234332 -0.029956 0.00037484581 9.219563e-39
-0.012591671 -0.029956 0.0011776065 9.219563e-39
-0.008113469 -0.029956 -0.00011059848 9.219563e-39
-0.0082767196 -0.029956 0.00060276088 9.219563e-39
-0.007135618 -0.029956 0.0012977136 9.219563e-39
-0.013649369 -0.029956 0.0010943677 9.219563e-39
-0.0070947013 -0.029956 -0.00066968374 9.219563e-39
-0.0083141169 -0.029956 -0.00070807978 9.219563e-39
-0.010154452 -0.029956 0.00055134768 9.219563e-39
-0.0063812849 -0.029956 0.0010006888 9.219563e-39
-0.0076576979 -0.029956 -0.00061835261 9.219563e-39
-0.0076831006 -0.029956 0.0013627922 9.219563e-39
-0.0097039435 -0.029956 0.0008532051 9.219563e-39
-0.0091876006 -0.029956 0.00068485946 9.219563e-39
-0.010347993 -0.029956 0.0014384552 9.219563e-39
-0.013976152 -0.029956 0.0015792706 9.219563e-39
-0.00676715 -0.029956 -7.3308307e-05 9.219563e-39
-0.013191066 -0.029956 0.0014226977 9.219563e-39
-0.01446946 -0.029675068 0.0042073494 9.219563e-39
-0.012547188 -0.029940128 0.0017701071 9.219563e-39
-0.015404874 -0.029810835 0.0029589741 9.219563e-39
-0.01258089 -0.029877964 0.0023417135 9.219563e-39
-0.014857334 -0.029852098 0.0025795489 9.219563e-39
-0.014095725 -0.029869333 0.0024210713 9.219563e-39
-0.01413239 -0.029761845 0.0034094201 9.219563e-39
-0.0108656 -0.029954933 0.0016339797 9.219563e-39
-0.01337785 -0.029809823 0.0029682727 9.219563e-39
-0.010377698 -0.029849388 0.0026044771 9.219563e-39
-0.012092995 -0.029907003 0.0020747003 9.219563e-39
-0.0098066628 -0.029854499 0.0025574679 9.219563e-39
-0.015847618 -0.029669214 0.004261177 9.219563e-39
-0.012446135 -0.029784013 0.0032055983 9.219563e-39
-0.015399559 -0.029632479 0.004598944 9.219563e-39
-0.014438096 -0.02981369 0.0029327052 9.219563e-39
-0.0080410764 -0.029925952 0.0019004561 9.219563e-39
-0.0149048 -0.029788038 0.0031685843 9.219563e-39
-0.013190962 -0.029868452 0.0024291712 9.219563e-39
-0.0091635669 -0.029883426 0.0022914894 9.219563e-39
-0.013432564 -0.029923514 0.001922884 9.219563e-39
-0.011215877 -0.02980849 0.0029805242 9.219563e-39
-0.0097927395 -0.029945524 0.001720492 9.219563e-39
-0.012970321 -0.029763069 0.0033981758 9.219563e-39
-0.0074659777 -0.02992258 0.0019314641 9.219563e-39
-0.01497011 -0.029689955 0.0040704589 9.219563e-39
-0.0103855 -0.029906189 0.0020821744 9.219563e-39
-0.015941722 -0.029888373 0.002246009 9.219563e-39
-0.011405006 -0.029860374 0.0025034477 9.219563e-39
-0.010923653 -0.029899187 0.0021465607 9.219563e-39
-0.0085844724 -0.029902052 0.0021202262 9.219563e-39
-0.015290324 -0.029928131 0.0018804184 9.219563e-39
-0.010920557 -0.029685888 0.0041078506 9.219563e-39
-0.010956763 -0.02974534 0.0035611887 9.219563e-39
-0.0063502938 -0.029829005 0.0027918995 9.219563e-39
-0.0077900798 -0.029758934 0.003436198 9.219563e-39
-0.0081231603 -0.029805264 0.003010192 9.219563e-39
-0.0096182432 -0.029755989 0.0034632664 9.219563e-39
-0.013432829 -0.029646952 0.0044658822 9.219563e-39
-0.006883454 -0.029892085 0.0022118601 9.219563e-39
-0.0071651326 -0.029613096 0.0047771824 9.219563e-39
-0.0063522374 -0.029721739 0.0037781987 9.219563e-39
-0.0069746198 -0.029821847 0.00285771 9.219563e-39
-0.012556214 -0.029643083 0.0045014559 9.219563e-39
-0.0082075447 -0.029639419 0.0045351367 9.219563e-39
-0.0087290863 -0.029837864 0.0027104341 9.219563e-39
-0.013925284 -0.029668586 0.0042669517 9.219563e-39
-0.010383358 -0.02974114 0.0035998025 9.219563e-39
-0.009245107 -0.029637987 0.0045483029 9.219563e-39
-0.014643823 -0.029616933 0.0047418936 9.219563e-39
-0.0065348167 -0.02993604 0.0018077118 9.219563e-39
-0.0075860657 -0.029689403 0.0040755402 9.219563e-39
-0.0090557253 -0.02971904 0.0038030148 9.219563e-39
-0.010375998 -0.029665632 0.0042941063 9.219563e-39
-0.0098378789 -0.02962333 0.0046830783 9.219563e-39
-0.0070185647 -0.029708112 0.0039035131 9.219563e-39
-0.012867853 -0.02969837 0.0039930851 9.219563e-39
-0.01120015 -0.029616578 0.0047451649 9.219563e-39
-0.0095894532 -0.029689506 0.0040745903 9.219563e-39
-0.0075892573 -0.029831905 0.0027652194 9.219563e-39
-0.011479717 -0.029737949 0.0036291524 9.219563e-39
-0.0060045198 -0.029677765 0.0041825422 9.219563e-39
-0.0064790957 -0.02963439 0.004581375 9.219563e-39
-0.0086230719 -0.029759359 0.0034322985 9.219563e-39
-0.012008241 -0.029678462 0.004176131 9.219563e-39
-0.010151975 -0.029791484 0.0031368947 9.219563e-39
-0.012122814 -0.029548557 0.005108973 9.219563e-39
-0.010679796 -0.029392652 0.0058172494 9.219563e-39
-0.013055377 -0.029596424 0.0048915097 9.219563e-39
-0.013348468 -0.029292429 0.0062725721 9.219563e-39
-0.009545235 -0.029437833 0.0056120008 9.219563e-39
-0.015859725 -0.029255707 0.006439399 9.219563e-39
-0.0081919627 -0.029522639 0.0052267187 9.219563e-39
-0.013824231 -0.02935978 0.0059665916 9.219563e-39
-0.015041449 -0.029309042 0.0061970931 9.219563e-39
-0.015697859 -0.029119767 0.0070569743 9.219563e-39
-0.0075068353 -0.02952959 0.0051951366 9.219563e-39
-0.012268796 -0.029383471 0.0058589596 9.219563e-39
-0.015123036 -0.029452816 0.0055439309 9.219563e-39
-0.014604301 -0.029513078 0.0052701575 9.219563e-39
-0.012634506 -0.029486852 0.0053893016 9.219563e-39
-0.015208809 -0.029001547 0.0075940522 9.219563e-39
-0.010707793 -0.029548293 0.0051101763 9.219563e-39
-0.0089394143 -0.029558567 0.005063497 9.219563e-39
-0.013916912 -0.029174579 0.0068079578 9.219563e-39
-0.015567375 -0.029526379 0.0052097309 9.219563e-39
-0.014601708 -0.029050836 0.0073701255 9.219563e-39
-0.011642084 -0.029516056 0.0052566277 9.219563e-39
-0.010248771 -0.029475579 0.005440515 9.219563e-39
-0.011255736 -0.029300766 0.0062346892 9.219563e-39
-0.014604843 -0.029248053 0.0064741648 9.219563e-39
-0.013206012 -0.02945205 0.005547408 9.219563e-39
-0.011974003 -0.029238183 0.006519007 9.219563e-39
-0.014047681 -0.029579161 0.0049699391 9.219563e-39
-0.013733571 -0.029480267 0.0054192133 9.219563e-39
-0.011680527 -0.029369147 0.0059240302 9.219563e-39
-0.014529958 -0.028937403 0.0078854607 9.219563e-39
-0.0098392898 -0.029081572 0.0072304946 9.219563e-39
-0.006890628 -0.029422637 0.0056810318 9.219563e-39
-0.0088917706 -0.029236179 0.0065281112 9.219563e-39
-0.012081687 -0.028974324 0.0077177202 9.219563e-39
-0.010366118 -0.029232211 0.0065461337 9.219563e-39
-0.0074066943 -0.029401734 0.0057759932 9.219563e-39
-0.0077876025 -0.029054042 0.0073555652 9.219563e-39
-0.012459159 -0.029083721 0.0072207288 9.219563e-39
-0.0076406496 -0.02892961 0.0079208575 9.219563e-39
-0.0097556766 -0.028919781 0.0079655163 9.219563e-39
-0.0082172779 -0.029217256 0.0066140811 9.219563e-39
-0.0068848189 -0.029235858 0.0065295715 9.219563e-39
-0.0068304613 -0.0290085 0.0075624604 9.219563e-39
-0.0066296286 -0.02912355 0.0070397877 9.219563e-39
-0.010656749 -0.028975017 0.0077145705 9.219563e-39
-0.013964317 -0.028918542 0.0079711434 9.219563e-39
-0.0083292602 -0.02898757 0.0076575475 9.219563e-39
-0.010003176 -0.02931799 0.0061564441 9.219563e-39
-0.0090930955 -0.029349959 0.0060112122 9.219563e-39
-0.0088521382 -0.029046834 0.0073883114 9.219563e-39
-0.008036064 -0.029401643 0.005776403 9.219563e-39
-0.0060441657 -0.029559921 0.0050573442 9.219563e-39
-0.013125506 -0.029075623 0.0072575221 9.219563e-39
-0.011266234 -0.0290477 0.0073843757 9.219563e-39
-0.0073139602 -0.029176446 0.0067994855 9.219563e-39
-0.0062513496 -0.029263826 0.0064025098 9.219563e-39
-0.012734224 -0.028983857 0.0076744165 9.219563e-39
-0.011076896 -0.029192323 0.0067273504 9.219563e-39
-0.013375493 -0.028959161 0.0077866106 9.219563e-39
-0.0093388818 -0.029148037 0.0069285408 9.219563e-39
-0.0092250891 -0.028915763 0.0079837646 9.219563e-39
-0.011064189 -0.028658453 0.0087620122 9.219563e-39
-0.010453005 -0.028588159 0.0089706397 9.219563e-39
-0.0090464726 -0.02860246 0.0089281928 9.219563e-39
-0.0088231126 -0.028781842 0.0083958153 9.219563e-39
-0.015483405 -0.028431509 0.0094355531 9.219563e-39
-0.010004188 -0.028717034 0.0085881585 9.219563e-39
-0.0070508709 -0.028835151 0.0082376041 9.219563e-39
-0.012669781 -0.028814981 0.0082974629 9.219563e-39
-0.014802547 -0.028795308 0.008355855 9.219563e-39
-0.0094123064 -0.028739423 0.0085217096 9.219563e-39
-0.012075247 -0.028680861 0.008695513 9.219563e-39
-0.013456651 -0.028742695 0.0085119978 9.219563e-39
-0.01432256 -0.02847684 0.0093010152 9.219563e-39
-0.012204251 -0.028459821 0.0093515282 9.219563e-39
-0.01301358 -0.028644772 0.0088026179 9.219563e-39
-0.014217011 -0.02827796 0.0098912623 9.219563e-39
-0.013789179 -0.028508469 0.0092071444 9.219563e-39
-0.01034183 -0.028861778 0.0081585813 9.219563e-39
-0.013387919 -0.028289905 0.0098558115 9.219563e-39
-0.014893201 -0.028529335 0.009145217 9.219563e-39
-0.015483671 -0.028766576 0.0084411232 9.219563e-39
-0.014953877 -0.028124319 0.010347245 9.219563e-39
-0.011269534 -0.028886838 0.0080842068 9.219563e-39
-0.015767969 -0.028164512 0.010227961 9.219563e-39
-0.012654366 -0.028369937 0.0096182898 9.219563e-39
-0.014202824 -0.028060948 0.010535321 9.219563e-39
-0.015565151 -0.027993008 0.010736954 9.219563e-39
-0.0080611445 -0.028816735 0.0082922587 9.219563e-39
-0.014249918 -0.028772669 0.0084230388 9.219563e-39
-0.011656424 -0.02853697 0.0091225579 9.219563e-39
-0.00985457 -0.028432166 0.0094336038 9.219563e-39
-0.0077172928 -0.028342353 0.0097001521 9.219563e-39
-0.0062887361 -0.028232362 0.010026587 9.219563e-39
-0.0069394424 -0.028656451 0.0087679597 9.219563e-39
-0.011682816 -0.028082673 0.010470845 9.219563e-39
-0.0079498971 -0.027947975 0.010870605 9.219563e-39
-0.0092842635 -0.028440537 0.009408758 9.219563e-39
-0.0068436544 -0.028332472 0.0097294785 9.219563e-39
-0.012282225 -0.028220495 0.010061808 9.219563e-39
-0.013458499 -0.028067453 0.010516014 9.219563e-39
-0.010715047 -0.02795057 0.010862904 9.219563e-39
-0.0073031145 -0.028200125 0.010122266 9.219563e-39
-0.014797953 -0.027881419 0.011068136 9.219563e-39
-0.012859071 -0.028121285 0.010356252 9.219563e-39
-0.010851875 -0.028200001 0.010122632 9.219563e-39
-0.0098166969 -0.028148174 0.010276444 9.219563e-39
-0.0092338016 -0.027986458 0.010756395 9.219563e-39
-0.0089786798 -0.028233562 0.010023031 9.219563e-39
-0.00653208 -0.028006738 0.010696209 9.219563e-39
-0.010312355 -0.028255567 0.0099577224 9.219563e-39
-0.013236379 -0.027870428 0.011100755 9.219563e-39
-0.011365977 -0.028335553 0.0097203357 9.219563e-39
-0.006040412 -0.028818108 0.0082881851 9.219563e-39
-0.01009584 -0.027932972 0.010915135 9.219563e-39
-0.0074195508 -0.028034257 0.010614537 9.219563e-39
-0.0077662105 -0.028547965 0.0090899263 9.219563e-39
-0.0079838866 -0.028171703 0.010206616 9.219563e-39
-0.0062194751 -0.028549876 0.0090842545 9.219563e-39
-0.0072321426 -0.028481493 0.0092872046 9.219563e-39
-0.0085477019 -0.027948892 0.010867886 9.219563e-39
-0.0085228942 -0.028333191 0.0097273439 9.219563e-39
-0.015021852 -0.027239807 0.012464812 9.219563e-39
-0.015281328 -0.026626557 0.013790407 9.219563e-39
-0.015851509 -0.026589507 0.013870492 9.219563e-39
-0.014449007 -0.027210945 0.012527199 9.219563e-39
-0.010873935 -0.027648825 0.011580681 9.219563e-39
-0.014563589 -0.027521482 0.011855944 9.219563e-39
-0.0089396732 -0.027745271 0.011372203 9.219563e-39
-0.014757174 -0.026906688 0.013184876 9.219563e-39
-0.013114827 -0.027070595 0.012830579 9.219563e-39
-0.0082882382 -0.027671516 0.011531631 9.219563e-39
-0.015613179 -0.027273744 0.012391451 9.219563e-39
-0.013721203 -0.027746078 0.011370459 9.219563e-39
-0.010136408 -0.027581451 0.011726313 9.219563e-39
-0.01408829 -0.027409256 0.012098531 9.219563e-39
-0.012173125 -0.027678277 0.011517016 9.219563e-39
-0.011552136 -0.02722474 0.012497379 9.219563e-39
-0.010077 -0.027355604 0.012214505 9.219563e-39
-0.015816297 -0.026949229 0.01309292 9.219563e-39
-0.01575698 -0.027747672 0.011367011 9.219563e-39
-0.012947298 -0.027572514 0.01174563 9.219563e-39
-0.012685625 -0.027858473 0.011127505 9.219563e-39
-0.011102771 -0.027389986 0.012140183 9.219563e-39
-0.0094380481 -0.027623367 0.01163571 9.219563e-39
-0.013561117 -0.027262222 0.012416359 9.219563e-39
-0.011510482 -0.027713256 0.011441408 9.219563e-39
-0.015206094 -0.027464135 0.011979905 9.219563e-39
-0.012420691 -0.027237156 0.012470539 9.219563e-39
-0.012216561 -0.027435668 0.012041438 9.219563e-39
-0.0067211571 -0.027805746 0.011241483 9.219563e-39
-0.0076750047 -0.027526787 0.011844479 9.219563e-39
-0.0072932718 -0.026664753 0.013707845 9.219563e-39
-0.0082981326 -0.026671303 0.013693682 9.219563e-39
-0.0065442463 -0.027492007 0.011919657 9.219563e-39
-0.008566916 -0.027374377 0.012173923 9.219563e-39
-0.011834113 -0.02703274 0.012912403 9.219563e-39
-0.01358646 -0.026771132 0.013477895 9.219563e-39
-0.0068702674 -0.027125662 0.012711544 9.219563e-39
-0.012677148 -0.026881423 0.013239491 9.219563e-39
-0.0064904317 -0.026703943 0.013623131 9.219563e-39
-0.010893062 -0.027178304 0.012597755 9.219563e-39
-0.0089242347 -0.026682718 0.013669008 9.219563e-39
-0.0065901973 -0.026937038 0.013119273 9.219563e-39
-0.0082229543 -0.027175914 0.012602918 9.219563e-39
-0.014616037 -0.026653757 0.013731612 9.219563e-39
-0.010521013 -0.026721718 0.013584709 9.219563e-39
-0.010294881 -0.027089223 0.01279031 9.219563e-39
-0.012103801 -0.026551463 0.013952729 9.219563e-39
-0.0072874129 -0.027283015 0.012371413 9.219563e-39
-0.0089429496 -0.026921671 0.01315249 9.219563e-39
-0.0060696793 -0.027020695 0.012938441 9.219563e-39
-0.0070984624 -0.027530925 0.011835529 9.219563e-39
-0.013884835 -0.026540106 0.01397728 9.219563e-39
-0.011522182 -0.026591454 0.013866285 9.219563e-39
-0.010047161 -0.026842346 0.013323959 9.219563e-39
-0.012710678 -0.026626747 0.013789997 9.219563e-39
-0.0060783816 -0.027377911 0.012166285 9.219563e-39
-0.0095630577 -0.027023623 0.012932112 9.219563e-39
-0.011159346 -0.026925001 0.01314529 9.219563e-39
-0.0075983866 -0.027016245 0.012948059 9.219563e-39
-0.0091532283 -0.027383029 0.012155221 9.219563e-39
-0.0096048741 -0.026714709 0.013599858 9.219563e-39
-0.010802168 -0.025751336 0.015305532 9.219563e-39
-0.012537243 -0.026351547 0.014307999 9.219563e-39
-0.009964942 -0.026027918 0.014845862 9.219563e-39
-0.011592601 -0.025912544 0.015037607 9.219563e-39
-0.0068798657 -0.026499642 0.014061868 9.219563e-39
-0.0092855338 -0.026217671 0.014530496 9.219563e-39
-0.013006571 -0.025441358 0.015820706 9.219563e-39
-0.014664701 -0.025898747 0.015060538 9.219563e-39
-0.01084429 -0.026097581 0.014730084 9.219563e-39
-0.015225799 -0.026315849 0.014367326 9.219563e-39
-0.015670449 -0.025118237 0.016357722 9.219563e-39
-0.013562904 -0.025864607 0.015117278 9.219563e-39
-0.015917456 -0.026278775 0.014428942 9.219563e-39
-0.012777286 -0.025825938 0.015181544 9.219563e-39
-0.010794283 -0.026481608 0.014091839 9.219563e-39
-0.012046889 -0.025522692 0.015685532 9.219563e-39
-0.014705536 -0.025535585 0.015664103 9.219563e-39
-0.015188809 -0.025737351 0.015328775 9.219563e-39
-0.012071263 -0.026099736 0.014726501 9.219563e-39
-0.014550402 -0.026299952 0.01439375 9.219563e-39
-0.013982416 -0.026247123 0.014481547 9.219563e-39
-0.0075594019 -0.026356472 0.014299814 9.219563e-39
-0.014517426 -0.025188576 0.016240822 9.219563e-39
-0.011457998 -0.026220044 0.014526553 9.219563e-39
-0.013454738 -0.025588553 0.015576072 9.219563e-39
-0.01400091 -0.025699668 0.015391404 9.219563e-39
-0.01552262 -0.025424613 0.015848536 9.219563e-39
-0.015068402 -0.02499143 0.016568471 9.219563e-39
