# .PCD v0.7 - Point Cloud Data file format
VERSION 0.7
FIELDS x y z rgb
SIZE 4 4 4 4
TYPE F F F F
COUNT 1 1 1 1
WIDTH 929
HEIGHT 1
VIEWPOINT 0 0 0 1 0 0 0
POINTS 929
DATA ascii
0.039795801 0.0035036167 -0.0017259744 9.219563e-39
0.039736513 0.0040488536 -0.011766781 9.219563e-39
0.039913516 0.0024210657 0.0059806802 9.219563e-39
0.039910238 0.0024512291 0.0084023541 9.219563e-39
0.039613061 0.0051841568 -0.016759979 9.219563e-39
0.039848771 0.0030164777 -0.021696566 9.219563e-39
0.039898958 0.0025549599 -0.012765698 9.219563e-39
0.039648436 0.0048588561 -0.010036881 9.219563e-39
0.039689001 0.0044857943 -0.016174369 9.219563e-39
0.0397305 0.0041041542 -0.021499498 9.219563e-39
0.039866872 0.0028500271 -0.017034745 9.219563e-39
0.039614838 0.0051678256 -0.021084847 9.219563e-39
0.039696615 0.0044157715 -0.022787059 9.219563e-39
0.039881092 0.002719261 -0.0096809715 9.219563e-39
0.039911479 0.0024398002 0.017117646 9.219563e-39
0.039807618 0.0033949444 -0.0090580266 9.219563e-39
0.039774433 0.0037001395 -0.016624512 9.219563e-39
0.039683376 0.0045375302 -0.014991032 9.219563e-39
0.039842643 0.0030728434 0.0076740971 9.219563e-39
0.039762497 0.0038099024 0.00052690518 9.219563e-39
0.039723285 0.0041704928 -0.012790758 9.219563e-39
0.039863072 0.0028849693 -0.022740917 9.219563e-39
0.039912406 0.0024312597 0.00030687338 9.219563e-39
0.039927986 0.002287992 -0.00062442943 9.219563e-39
0.039747581 0.0039470582 -0.026444087 9.219563e-39
0.039660949 0.0047437786 -0.025828656 9.219563e-39
0.039865497 0.0028626777 -0.013603845 9.219563e-39
0.039785184 0.0036012682 -0.020725859 9.219563e-39
0.0399356 0.0022179727 -0.011204046 9.219563e-39
0.039602853 0.0052780276 -0.018419929 9.219563e-39
0.039886057 0.0026735831 -0.0061704814 9.219563e-39
0.039711952 0.0042747292 -0.0089216847 9.219563e-39
0.039913941 0.0024171635 0.0099133644 9.219563e-39
0.039916661 0.0023921628 -0.0044906507 9.219563e-39
0.039829608 0.0031927228 0.0052425126 9.219563e-39
0.039839279 0.0031037796 0.0015534523 9.219563e-39
0.039767306 0.0037656685 -0.0048351455 9.219563e-39
0.039856553 0.0029449253 -0.01194098 9.219563e-39
0.039767444 0.0037644065 -0.014491766 9.219563e-39
0.039906818 0.0024826557 0.013631624 9.219563e-39
0.039867807 0.0028414272 -0.023862123 9.219563e-39
0.039836481 0.0031295209 -0.0110884 9.219563e-39
0.0396908 0.0044692438 -0.02040055 9.219563e-39
0.039909039 0.0024622472 0.018257534 9.219563e-39
0.039751213 0.0039136559 -0.0058542984 9.219563e-39
0.039804813 0.0034207487 -0.006909865 9.219563e-39
0.039589468 0.0054011205 -0.022301402 9.219563e-39
0.039862428 0.0028908914 0.0035566057 9.219563e-39
0.039883971 0.0026927863 -0.015832907 9.219563e-39
0.039763998 0.0037960934 -0.015608245 9.219563e-39
0.039636761 0.0049662194 -0.028343931 9.219563e-39
0.03977485 0.003696305 -0.0006947979 9.219563e-39
0.039752383 0.0039029205 -0.0031984919 9.219563e-39
0.03973715 0.0040429821 -0.027575221 9.219563e-39
0.039775573 0.003689639 -0.02554113 9.219563e-39
0.039686728 0.0045066839 -0.017964015 9.219563e-39
0.039925333 0.0023123792 0.016011767 9.219563e-39
0.039870683 0.0028149856 0.010721512 9.219563e-39
0.039784569 0.003606895 -0.019446678 9.219563e-39
0.03972663 0.0041397572 -0.010912037 9.219563e-39
0.039689709 0.0044792742 0.012822773 9.219563e-39
0.039579462 0.0054931636 -0.014230099 9.219563e-39
0.039525345 0.0059908414 -0.017747037 9.219563e-39
0.039656788 0.0047820155 0.0026655099 9.219563e-39
0.039510846 0.0061241682 -0.021499947 9.219563e-39
0.03981423 0.0033341406 0.0094841206 9.219563e-39
0.039657708 0.0047735763 0.017723786 9.219563e-39
0.039525788 0.0059867641 -0.00056535169 9.219563e-39
0.039709851 0.0042940415 0.0087386314 9.219563e-39
0.039820794 0.003273763 0.014912101 9.219563e-39
0.039557517 0.0056949677 0.022271655 9.219563e-39
0.039491057 0.0063061402 0.01576579 9.219563e-39
0.039560959 0.0056633037 0.0088212863 9.219563e-39
0.039562333 0.0056506721 0.018677332 9.219563e-39
0.039495487 0.0062654335 -0.0087240543 9.219563e-39
0.03961404 0.0051751402 -0.01126426 9.219563e-39
0.039738066 0.0040345527 0.01612753 9.219563e-39
0.03948807 0.0063336352 0.0095255226 9.219563e-39
0.039510351 0.0061287228 0.011041671 9.219563e-39
0.039665811 0.0046990444 0.0040955879 9.219563e-39
0.039857902 0.0029325222 0.021702878 9.219563e-39
0.039620787 0.0051131244 0.0060281758 9.219563e-39
0.039805267 0.003416576 0.02261607 9.219563e-39
0.039491557 0.0063015716 -0.026702879 9.219563e-39
0.039492123 0.0062963618 -0.0037665276 9.219563e-39
0.039610848 0.0052045309 -0.0090955328 9.219563e-39
0.039797623 0.0034868717 0.017681405 9.219563e-39
0.039704502 0.0043432508 -0.0023392583 9.219563e-39
0.039477039 0.0064350846 -0.016410328 9.219563e-39
0.039680935 0.0045599793 0.019796411 9.219563e-39
0.039541207 0.0058449511 0.0077561075 9.219563e-39
0.039676189 0.0046036178 0.022458196 9.219563e-39
0.039670508 0.0046558599 0.0052453075 9.219563e-39
0.03947971 0.0064104898 -0.018693935 9.219563e-39
0.039592981 0.0053688083 0.014257421 9.219563e-39
0.039519913 0.0060407636 -0.012385464 9.219563e-39
0.03972014 0.0041994252 0.018889254 9.219563e-39
0.039611749 0.0051962356 -0.005871587 9.219563e-39
0.039578293 0.0055038924 0.00038417673 9.219563e-39
0.039697178 0.0044106017 0.010732288 9.219563e-39
0.039589204 0.0054035624 0.013258105 9.219563e-39
0.039628141 0.0050454959 0.011921735 9.219563e-39
0.039507911 0.0061511709 -0.020641806 9.219563e-39
0.039519127 0.0060480125 -0.015365359 9.219563e-39
0.039533496 0.0059158788 0.016687881 9.219563e-39
0.039708763 0.0043040542 0.0065000579 9.219563e-39
0.039698001 0.0044030314 0.021524973 9.219563e-39
0.039662067 0.0047334973 0.0074127237 9.219563e-39
0.039570343 0.0055770129 0.020708915 9.219563e-39
0.039562229 0.0056516253 -0.0050374549 9.219563e-39
0.039592396 0.0053742146 -0.0017336039 9.219563e-39
0.039834086 0.003151526 0.019086149 9.219563e-39
0.039767995 0.0037593194 0.020419195 9.219563e-39
0.039544359 0.0058159642 0.0046142032 9.219563e-39
0.03968494 0.0045231446 -0.001243641 9.219563e-39
0.039590437 0.0053922343 0.0019562028 9.219563e-39
0.039555669 0.0057119615 0.0037302449 9.219563e-39
0.039538588 0.0058690305 -0.019549981 9.219563e-39
0.039609991 0.0052123857 -0.0067404616 9.219563e-39
0.039496005 0.0062606703 -0.010876978 9.219563e-39
0.039738033 0.0040348778 0.01170544 9.219563e-39
0.039505433 0.0061739334 0.0010636891 9.219563e-39
0.039592911 0.0053694886 0.010633905 9.219563e-39
0.039599497 0.0053089196 -0.0079935454 9.219563e-39
0.039645076 0.0048897322 0.015391977 9.219563e-39
0.039534856 0.0059033702 0.0068101557 9.219563e-39
0.039503317 0.006193392 0.01262311 9.219563e-39
0.039781716 0.0036331534 0.013410364 9.219563e-39
0.039552849 0.0057378896 -0.013245136 9.219563e-39
0.039634012 0.0049915081 -0.00038602712 9.219563e-39
0.039527167 0.0059740664 0.014854758 9.219563e-39
0.039500363 0.0062205615 0.0055595869 9.219563e-39
0.039711274 0.0042809746 0.001892463 9.219563e-39
0.039628845 0.0050390153 -0.0040234514 9.219563e-39
0.039899353 0.0025513165 0.020231139 9.219563e-39
0.039747506 0.0039477511 0.014289336 9.219563e-39
0.039479863 0.0064091096 -0.023380268 9.219563e-39
0.039583981 0.0054515805 -0.0030549855 9.219563e-39
0.039382409 0.0069018281 0.0065979054 9.219563e-39
0.039286651 0.0073564323 0.0097443331 9.219563e-39
0.039197467 0.0077798208 -0.0091096899 9.219563e-39
0.039287429 0.0073527428 -0.0082610985 9.219563e-39
0.038806375 0.009636472 -0.021701144 9.219563e-39
0.039413761 0.0067529893 0.017213836 9.219563e-39
0.039059255 0.0084359637 -0.017327463 9.219563e-39
0.039075915 0.008356872 -0.022461791 9.219563e-39
0.039361466 0.007001264 -0.0096640028 9.219563e-39
0.039287038 0.0073545873 -0.0041285823 9.219563e-39
0.038903501 0.009175377 -0.024189582 9.219563e-39
0.039393697 0.0068482473 -0.01189355 9.219563e-39
0.039252087 0.0075205071 0.0051326938 9.219563e-39
0.038988631 0.0087712463 -0.008180405 9.219563e-39
0.039458018 0.0065428847 0.0022834677 9.219563e-39
0.038895648 0.0092126625 -0.019654103 9.219563e-39
0.039421249 0.0067174342 -0.013076165 9.219563e-39
0.039236818 0.007593005 -0.0016266488 9.219563e-39
0.039176915 0.0078773852 -0.013584918 9.219563e-39
0.038786381 0.0097313914 -0.022861129 9.219563e-39
0.039207511 0.0077321385 0.00041171338 9.219563e-39
0.039030671 0.0085716695 -0.012390338 9.219563e-39
0.039017331 0.0086349882 -0.0091143837 9.219563e-39
0.03921983 0.0076736547 -0.025277741 9.219563e-39
0.039402682 0.006805589 -0.0020427753 9.219563e-39
0.039370842 0.0069567421 -0.00093118649 9.219563e-39
0.039144583 0.0080308849 -0.02621755 9.219563e-39
0.039184652 0.0078406474 0.0025606866 9.219563e-39
0.039349213 0.0070594307 -0.021881592 9.219563e-39
0.039324779 0.007175413 -0.019437725 9.219563e-39
0.039324827 0.0071751857 0.0011885656 9.219563e-39
0.039445836 0.0066007203 -0.0063176425 9.219563e-39
0.038805336 0.0096414164 -0.020442799 9.219563e-39
0.039401088 0.0068131569 -0.0073000565 9.219563e-39
0.039095014 0.0082662078 -0.011305646 9.219563e-39
0.039326865 0.0071655205 -0.010903548 9.219563e-39
0.03932932 0.0071538636 0.0088033173 9.219563e-39
0.038832169 0.0095140319 -0.018678607 9.219563e-39
0.039365087 0.0069840671 -0.027295969 9.219563e-39
0.03932422 0.0071780733 0.012595649 9.219563e-39
0.039018285 0.0086304666 -0.0073334025 9.219563e-39
0.039148264 0.0080134049 -0.0057155564 9.219563e-39
0.039423089 0.0067087002 0.0001198531 9.219563e-39
0.039281815 0.0073793838 -0.016363611 9.219563e-39
0.039275713 0.0074083535 -0.020910658 9.219563e-39
0.039040308 0.0085259015 -0.020288585 9.219563e-39
0.039225619 0.0076461723 0.0060460381 9.219563e-39
0.038970515 0.0088572465 -0.013318267 9.219563e-39
0.03916936 0.0079132617 -0.0034879812 9.219563e-39
0.039337087 0.0071169813 -0.0053899717 9.219563e-39
0.03898054 0.0088096522 -0.021359308 9.219563e-39
0.039291631 0.0073327892 -0.017369503 9.219563e-39
0.039150942 0.0080006979 -0.019311145 9.219563e-39
0.03908594 0.0083092805 -0.016051037 9.219563e-39
0.03929681 0.0073081995 -0.018213173 9.219563e-39
0.039375953 0.0069324761 0.014365447 9.219563e-39
0.039303243 0.0072776591 0.0041643642 9.219563e-39
0.039133504 0.0080834813 -0.015004809 9.219563e-39
0.039276537 0.0074044392 -0.022780448 9.219563e-39
0.039162945 0.0079437131 -0.010240272 9.219563e-39
0.039072029 0.0083753178 -0.018257957 9.219563e-39
0.039261457 0.0074760378 -0.0026248379 9.219563e-39
0.039443124 0.0066135991 0.0032815977 9.219563e-39
0.039255794 0.0075029111 -0.012485958 9.219563e-39
0.039121415 0.0081408592 -0.028916109 9.219563e-39
0.038871489 0.0093273511 -0.026345123 9.219563e-39
0.038770139 0.0098085012 -0.025559051 9.219563e-39
0.039288927 0.0073456196 -0.028314047 9.219563e-39
0.038940161 0.0090013444 -0.027980454 9.219563e-39
0.038834218 0.0094722183 -0.0068337866 9.219563e-39
0.038697273 0.010033625 0.011534921 9.219563e-39
0.038953099 0.0089023951 0.0021748636 9.219563e-39
0.039099075 0.0082037309 0.012919971 9.219563e-39
0.038625631 0.010377851 0.0058545414 9.219563e-39
0.038841195 0.009375439 0.012853938 9.219563e-39
0.03899936 0.0087030288 -0.0010898212 9.219563e-39
0.038878441 0.0092027299 0.013918591 9.219563e-39
0.039226945 0.0076268259 0.011713805 9.219563e-39
0.038919304 0.0090627288 0.00011401483 9.219563e-39
0.039317522 0.0071867257 0.020372124 9.219563e-39
0.039127395 0.0080570448 0.018375468 9.219563e-39
0.039047919 0.008463975 0.0044945437 9.219563e-39
0.038846038 0.0094131734 -0.0052141994 9.219563e-39
0.038723994 0.009928206 0.0067006922 9.219563e-39
0.03879483 0.0096844267 -0.016900081 9.219563e-39
0.038994133 0.0086553358 0.020518534 9.219563e-39
0.03900129 0.008641988 0.014720982 9.219563e-39
0.038942892 0.0089673214 -0.0034425121 9.219563e-39
0.03897395 0.008793382 0.0064985715 9.219563e-39
0.039164744 0.0079251863 0.006936199 9.219563e-39
0.038993273 0.0087159919 0.0033547825 9.219563e-39
0.038918678 0.009102474 -0.011051585 9.219563e-39
0.039451916 0.0065710647 0.02192663 9.219563e-39
0.038679373 0.010121577 0.0095253512 9.219563e-39
0.039388452 0.0068719075 0.018136038 9.219563e-39
0.039251756 0.0074789012 0.022365155 9.219563e-39
0.038839743 0.0093509955 0.022247786 9.219563e-39
0.038783327 0.009628376 0.01586345 9.219563e-39
0.03914468 0.0079677431 0.021637924 9.219563e-39
0.039215177 0.0076923734 0.008059402 9.219563e-39
0.038992811 0.0087018134 0.0082755312 9.219563e-39
0.038697548 0.010044491 0.0078678718 9.219563e-39
0.038641095 0.010270667 0.017027423 9.219563e-39
0.039040741 0.0084596714 0.015662201 9.219563e-39
0.038735833 0.0099229654 -0.0079842629 9.219563e-39
0.038757637 0.0097945994 0.00088684994 9.219563e-39
0.039007246 0.0086788982 -0.0046287389 9.219563e-39
0.039255969 0.0074985195 0.010642976 9.219563e-39
0.038795933 0.0096077239 0.0047873869 9.219563e-39
0.038838282 0.0094628818 -0.0095958244 9.219563e-39
0.038747493 0.0098947231 -0.015462057 9.219563e-39
0.038670782 0.010212477 -0.0061696544 9.219563e-39
0.038799737 0.009647931 -0.01260475 9.219563e-39
0.038914554 0.0090203015 0.01947741 9.219563e-39
0.03880284 0.0095226476 0.021036426 9.219563e-39
0.039088823 0.0082893139 0.0011160972 9.219563e-39
0.038719539 0.0099057816 0.019609978 9.219563e-39
0.038782988 0.0096853022 -0.00089230813 9.219563e-39
0.038584404 0.010525306 0.01790517 9.219563e-39
0.038719691 0.0099832378 -0.0040349504 9.219563e-39
0.03923342 0.0075730076 0.019098388 9.219563e-39
0.038677718 0.01016023 0.00010442607 9.219563e-39
0.038848568 0.0094318064 -0.014326496 9.219563e-39
0.038684316 0.010169241 -0.011687038 9.219563e-39
0.038778733 0.0096408296 0.018412178 9.219563e-39
0.038658824 0.010173427 0.022081677 9.219563e-39
0.038645975 0.01026986 0.010562124 9.219563e-39
0.03872497 0.0099360431 0.0029876512 9.219563e-39
0.039023172 0.0085359998 0.016713697 9.219563e-39
0.038804509 0.0095349494 0.015018423 9.219563e-39
0.038922165 0.0090138325 0.010971234 9.219563e-39
0.039004203 0.0086385673 0.011756083 9.219563e-39
0.039255887 0.0074788984 0.016688751 9.219563e-39
0.038824059 0.0094383052 0.01738772 9.219563e-39
0.038815312 0.0095064137 0.0088053541 9.219563e-39
0.039286003 0.0073467172 0.015293179 9.219563e-39
0.039088879 0.0082622766 0.009221578 9.219563e-39
0.038971804 0.0088447314 -0.0060870633 9.219563e-39
0.038842712 0.009417763 -0.0020317456 9.219563e-39
0.038695812 0.010033466 0.013589281 9.219563e-39
-0.039649971 0.0048447386 0.01785838 9.219563e-39
-0.03958584 0.0054344991 0.021799639 9.219563e-39
-0.039895285 0.0025887268 -0.00065824302 9.219563e-39
-0.039768208 0.0037573848 -0.00038747722 9.219563e-39
-0.039906848 0.0024823959 -0.0029899462 9.219563e-39
-0.039804105 0.0034272396 0.015179978 9.219563e-39
-0.039778598 0.0036618295 0.010754732 9.219563e-39
-0.039833751 0.0031546082 -0.016382884 9.219563e-39
-0.039936073 0.002213639 0.0033133151 9.219563e-39
-0.03977951 0.0036534162 0.012093715 9.219563e-39
-0.039872281 0.0028002728 0.012290675 9.219563e-39
-0.039660204 0.0047505987 0.010748997 9.219563e-39
-0.039678436 0.0045829485 0.020831961 9.219563e-39
-0.039911482 0.0024397678 -0.011187752 9.219563e-39
-0.039828617 0.0032018351 0.0088165365 9.219563e-39
-0.039762326 0.0038114719 0.001084327 9.219563e-39
-0.039911207 0.002442322 0.0065178899 9.219563e-39
-0.039576001 0.0055249631 0.014493058 9.219563e-39
-0.039839007 0.0031062705 0.022040609 9.219563e-39
-0.039862171 0.0028932511 0.018514888 9.219563e-39
-0.039649304 0.0048508723 0.01370236 9.219563e-39
-0.039568663 0.0055924733 0.020935388 9.219563e-39
-0.039899305 0.0025517612 0.022903595 9.219563e-39
-0.039792538 0.0035336402 0.0055847941 9.219563e-39
-0.039724767 0.0041568559 -0.0012679524 9.219563e-39
-0.039887309 0.0026620834 0.015747493 9.219563e-39
-0.039897561 0.0025678049 -0.012369513 9.219563e-39
-0.039839536 0.0031014041 -0.0084459782 9.219563e-39
-0.039883431 0.0026977467 0.01459385 9.219563e-39
-0.039844003 0.0030603462 0.016682614 9.219563e-39
-0.039716206 0.0042356052 0.0049361535 9.219563e-39
-0.039618474 0.0051343897 0.0089517012 9.219563e-39
-0.039774593 0.0036986389 0.0098032719 9.219563e-39
-0.039715756 0.0042397496 0.0038543909 9.219563e-39
-0.039684609 0.0045261909 0.01221012 9.219563e-39
-0.03977548 0.0036905168 0.017425822 9.219563e-39
-0.039727811 0.0041288938 0.014513182 9.219563e-39
-0.039908241 0.0024695883 -0.0070535112 9.219563e-39
-0.039842352 0.0030755079 0.013250607 9.219563e-39
-0.039814003 0.0033362308 -0.002158442 9.219563e-39
-0.039548732 0.0057757674 0.018336337 9.219563e-39
-0.039845202 0.0030493063 0.02050527 9.219563e-39
-0.039938092 0.0021950682 0.012967419 9.219563e-39
-0.039783299 0.0036185929 0.019057918 9.219563e-39
-0.039875686 0.002768958 0.010576332 9.219563e-39
-0.03989552 0.002586581 -0.015410772 9.219563e-39
-0.039883677 0.0026954962 0.00023308766 9.219563e-39
-0.039826237 0.0032237382 -0.0051526683 9.219563e-39
-0.039685186 0.0045208582 0.0081296936 9.219563e-39
-0.039784998 0.0036029769 -0.0033494562 9.219563e-39
-0.039813258 0.0033430657 0.0044704517 9.219563e-39
-0.03975923 0.0038399268 0.015943756 9.219563e-39
-0.039624102 0.0050826091 0.022760924 9.219563e-39
-0.03975597 0.0038699142 0.019918442 9.219563e-39
-0.039927654 0.0022910482 -0.0048312536 9.219563e-39
-0.03969397 0.0044401032 0.0068600508 9.219563e-39
-0.039619956 0.0051207375 0.016797481 9.219563e-39
-0.039875288 0.0027726253 -0.013353658 9.219563e-39
-0.039796636 0.0034959547 0.0020318155 9.219563e-39
-0.0399139 0.002417522 0.0054573789 9.219563e-39
-0.03982719 0.0032149509 -0.010167976 9.219563e-39
-0.039684776 0.0045246589 0.015271152 9.219563e-39
-0.039645061 0.0048898947 0.019429367 9.219563e-39
-0.039509289 0.0061384761 0.01933844 9.219563e-39
-0.039823011 0.0032533819 0.0072855465 9.219563e-39
-0.039729059 0.004117399 -0.00253386 9.219563e-39
-0.039841235 0.003085779 -0.0061631678 9.219563e-39
-0.039889701 0.0026400688 0.0095807025 9.219563e-39
-0.039739143 0.0040246784 0.013115686 9.219563e-39
-0.039670434 0.0046565458 0.0097242566 9.219563e-39
-0.039936554 0.002209215 -0.020397415 9.219563e-39
-0.039911777 0.0024370563 0.0021335995 9.219563e-39
-0.039842561 0.0030736008 -0.0041042948 9.219563e-39
-0.039831389 0.0031763564 0.0029477943 9.219563e-39
-0.0399413 0.0011659669 0.0052398709 9.219563e-39
-0.0399413 -2.7863043e-05 -0.015511465 9.219563e-39
-0.0399413 0.0010131686 -0.026811382 9.219563e-39
-0.0399413 0.00037671023 -0.023349455 9.219563e-39
-0.0399413 0.0018383857 -0.0091632577 9.219563e-39
-0.0399413 0.00059428619 0.0027418064 9.219563e-39
-0.0399413 0.00074713881 -0.0081617031 9.219563e-39
-0.0399413 -0.00065737893 -0.023956427 9.219563e-39
-0.0399413 -0.0012314827 -0.018778525 9.219563e-39
-0.0399413 -0.00098598353 -0.027118199 9.219563e-39
-0.0399413 0.00098254555 -0.011121672 9.219563e-39
-0.0399413 0.0020886625 -0.026481975 9.219563e-39
-0.0399413 5.2387881e-05 -0.027664836 9.219563e-39
-0.0399413 0.001816537 -0.013628316 9.219563e-39
-0.0399413 -0.0003790755 -0.014028045 9.219563e-39
-0.0399413 0.0015271539 0.0024281566 9.219563e-39
-0.0399413 0.00039456566 -0.019986818 9.219563e-39
-0.0399413 0.0015331593 -0.0068282406 9.219563e-39
-0.0399413 0.00077907369 0.0001217871 9.219563e-39
-0.0399413 -0.0017446571 -0.024575043 9.219563e-39
-0.0399413 -0.00056418992 -0.01978457 9.219563e-39
-0.0399413 0.0003912609 -0.018279452 9.219563e-39
-0.0399413 -0.0012687747 -0.023125164 9.219563e-39
-0.0399413 0.0019351554 -0.025089439 9.219563e-39
-0.0399413 -0.00071858178 -0.026046677 9.219563e-39
-0.0399413 0.0017090414 0.012134211 9.219563e-39
-0.0399413 0.0021286355 -0.0015063636 9.219563e-39
-0.0399413 0.0018239542 -0.011935658 9.219563e-39
-0.0399413 0.00060985377 -0.021689991 9.219563e-39
-0.0399413 -0.0012910618 -0.022222126 9.219563e-39
-0.0399413 0.0017446453 0.0079945913 9.219563e-39
-0.0399413 0.0013614536 -0.001959424 9.219563e-39
-0.0399413 0.00102401 -0.013993219 9.219563e-39
-0.0399413 0.0018670852 -0.014834103 9.219563e-39
-0.0399413 0.0015192507 -0.024278313 9.219563e-39
-0.0399413 0.00016265106 -0.0091342218 9.219563e-39
-0.0399413 0.0013466416 -0.0030775832 9.219563e-39
-0.0399413 0.0018638641 -0.022026747 9.219563e-39
-0.0399413 0.0012485945 0.0098601673 9.219563e-39
-0.0399413 0.001923139 -0.019076133 9.219563e-39
-0.0399413 0.0017119602 0.0071470323 9.219563e-39
-0.0399413 0.0019202353 -0.0163031 9.219563e-39
-0.0399413 0.0011220973 -0.020897781 9.219563e-39
-0.0399413 -0.00064543798 -0.017335016 9.219563e-39
-0.0399413 0.00073509902 -0.0098933401 9.219563e-39
-0.0399413 0.0021169353 0.019258345 9.219563e-39
-0.0399413 -9.4953039e-06 -0.022463912 9.219563e-39
-0.0399413 0.00079468661 -0.012079393 9.219563e-39
-0.0399413 0.0011313842 -0.012874824 9.219563e-39
-0.0399413 -0.00034673212 -0.016494147 9.219563e-39
-0.0399413 -0.00026615884 -0.021601796 9.219563e-39
-0.0399413 0.0017598551 -0.028316582 9.219563e-39
-0.0399413 0.0008907544 -0.028013535 9.219563e-39
-0.0399413 0.00074316852 -0.0012744486 9.219563e-39
-0.0399413 0.00042786304 -0.0035805197 9.219563e-39
-0.0399413 -0.00010937445 -0.012992477 9.219563e-39
-0.0399413 0.0017038028 -0.027452514 9.219563e-39
-0.0399413 -0.001191 -0.02059212 9.219563e-39
-0.0399413 0.0017215277 0.016938185 9.219563e-39
-0.0399413 0.00082273188 -0.017134152 9.219563e-39
-0.0399413 0.00032586808 -0.0058441628 9.219563e-39
-0.0399413 0.00024955731 -0.0046858857 9.219563e-39
-0.0399413 9.6681011e-05 -0.025278278 9.219563e-39
-0.0399413 0.0015229289 -0.0055466895 9.219563e-39
-0.0399413 0.0013592331 -0.018019741 9.219563e-39
-0.0399413 0.0015989809 0.0040590726 9.219563e-39
-0.0399413 0.0015204008 -0.0077424729 9.219563e-39
-0.0399413 0.00066630263 -0.0072320453 9.219563e-39
-0.0399413 0.0012043178 -0.004668396 9.219563e-39
-0.0399413 0.0011913648 0.00095545891 9.219563e-39
-0.0399413 0.0015175593 -0.00051148183 9.219563e-39
-0.0399413 0.0019137982 0.0090376316 9.219563e-39
-0.0399413 -0.00013474948 -0.011344353 9.219563e-39
-0.0399413 -0.00081997673 -0.028167795 9.219563e-39
-0.039493334 0.0062852134 -0.003596629 9.219563e-39
-0.039520912 0.006031598 -0.01335507 9.219563e-39
-0.03970062 0.0043789274 -0.0099821556 9.219563e-39
-0.039490864 0.0063079386 -0.010548453 9.219563e-39
-0.039700776 0.0043775099 -0.020913905 9.219563e-39
-0.039616887 0.005148991 0.00618272 9.219563e-39
-0.039676346 0.0046021831 -0.018629743 9.219563e-39
-0.039586332 0.0054299668 -0.011583339 9.219563e-39
-0.039724432 0.0041599488 -0.01525312 9.219563e-39
-0.039482601 0.0063839038 -0.0063655195 9.219563e-39
-0.039866433 0.0028540653 -0.025793746 9.219563e-39
-0.039677605 0.0045906017 -0.027023129 9.219563e-39
-0.039673574 0.0046276744 -0.00040683383 9.219563e-39
-0.039515615 0.0060803266 0.0029858719 9.219563e-39
-0.039593779 0.0053614867 -0.017626124 9.219563e-39
-0.039481457 0.006394437 -0.016724095 9.219563e-39
-0.039616134 0.0051559 -0.022590209 9.219563e-39
-0.039497975 0.0062425151 -0.009002029 9.219563e-39
-0.039839119 0.0031052511 -0.021412551 9.219563e-39
-0.039705418 0.0043348139 -0.013057602 9.219563e-39
-0.039612208 0.0051920121 -0.014243177 9.219563e-39
-0.039537929 0.0058750967 -0.021597186 9.219563e-39
-0.039552059 0.005745146 -0.018731525 9.219563e-39
-0.039533865 0.0059124948 -0.028449591 9.219563e-39
-0.039591305 0.0053842398 -0.024294289 9.219563e-39
-0.039862208 0.0028929287 -0.022862727 9.219563e-39
-0.039720304 0.004197916 -0.017609561 9.219563e-39
-0.039479904 0.0064087147 -0.017987836 9.219563e-39
-0.03974431 0.0039771399 -0.019484838 9.219563e-39
-0.039735734 0.0040559988 -0.02849604 9.219563e-39
-0.039599463 0.0053092204 -0.010557855 9.219563e-39
-0.039812226 0.0033525808 -0.014824654 9.219563e-39
-0.039842337 0.0030756665 -0.019093884 9.219563e-39
-0.039672062 0.0046415813 0.0006562596 9.219563e-39
-0.039620798 0.0051130182 0.0037464201 9.219563e-39
-0.039723106 0.0041721566 -0.0084184585 9.219563e-39
-0.039584473 0.0054470785 -0.0025716471 9.219563e-39
-0.039731994 0.004090392 -0.0070064059 9.219563e-39
-0.039831083 0.0031791367 -0.018003266 9.219563e-39
-0.039531078 0.0059381025 -0.0082112374 9.219563e-39
-0.03971285 0.0042664516 -0.02189561 9.219563e-39
-0.039560307 0.0056693037 0.0077893599 9.219563e-39
-0.039473709 0.0064656888 0.020604771 9.219563e-39
-0.039527871 0.0059676068 0.0097562894 9.219563e-39
-0.039757013 0.0038603304 -0.014028296 9.219563e-39
-0.039583739 0.0054538241 -2.3245102e-06 9.219563e-39
-0.039557051 0.0056992583 -0.0071910131 9.219563e-39
-0.039606366 0.0052457163 -0.0011749101 9.219563e-39
-0.039672434 0.0046381317 -0.016778616 9.219563e-39
-0.039777499 0.003671926 -0.026092043 9.219563e-39
-0.039718058 0.0042185676 -0.005165461 9.219563e-39
-0.039837897 0.0031165029 -0.020041581 9.219563e-39
-0.039878048 0.0027472551 -0.024665413 9.219563e-39
-0.039609808 0.0052140714 -0.004376201 9.219563e-39
-0.039631985 0.0050101131 -0.015883142 9.219563e-39
-0.039647836 0.0048643583 -0.0057546049 9.219563e-39
-0.039561018 0.0056627775 0.012492768 9.219563e-39
-0.039651975 0.0048262794 0.0023552175 9.219563e-39
-0.039642289 0.0049153846 -0.0092310961 9.219563e-39
-0.039554268 0.005724852 0.0018987732 9.219563e-39
-0.039493155 0.0062868558 -0.026716871 9.219563e-39
-0.03958331 0.005457764 -0.020413468 9.219563e-39
-0.039492186 0.0062957765 0.014104571 9.219563e-39
-0.039694924 0.0044313269 -0.011194717 9.219563e-39
-0.039611854 0.0051952777 0.0049581798 9.219563e-39
-0.039746631 0.0039558155 -0.023341067 9.219563e-39
-0.039522722 0.0060149636 -0.015332671 9.219563e-39
-0.03981261 0.0033490362 -0.027072735 9.219563e-39
-0.039564986 0.0056262868 0.010850893 9.219563e-39
-0.039518073 0.0060576871 0.016041728 9.219563e-39
-0.039662749 0.0047272262 -0.007709071 9.219563e-39
-0.039839361 0.003103018 -0.023818204 9.219563e-39
-0.039715882 0.0042385887 -0.024414081 9.219563e-39
-0.039479341 0.0064139008 -0.0051586055 9.219563e-39
-0.039687771 0.0044971025 -0.0034763745 9.219563e-39
-0.039787956 0.0035757828 -0.012308394 9.219563e-39
-0.03951215 0.0061121895 0.0010976075 9.219563e-39
-0.039479438 0.0064130048 0.0062663411 9.219563e-39
-0.0399413 -0.00058961689 -0.0032627508 9.219563e-39
-0.0399413 -0.0010357742 0.014031596 9.219563e-39
-0.0399413 0.00030664098 0.0044962536 9.219563e-39
-0.0399413 0.00070502848 0.0091107404 9.219563e-39
-0.0399413 -0.0010039534 -0.004825959 9.219563e-39
-0.0399413 -0.0020509441 0.003033631 9.219563e-39
-0.0399413 -0.00087317702 -0.0098230187 9.219563e-39
-0.0399413 0.0019621777 0.022005895 9.219563e-39
-0.0399413 -0.0013401048 -0.013606033 9.219563e-39
-0.0399413 -0.00090194691 0.0023864964 9.219563e-39
-0.0399413 -0.00054587127 -0.0077928198 9.219563e-39
-0.0399413 0.00022145735 0.014423544 9.219563e-39
-0.0399413 0.00084971893 0.01637226 9.219563e-39
-0.0399413 0.0010647663 0.010884266 9.219563e-39
-0.0399413 -0.0021160925 -0.019912528 9.219563e-39
-0.0399413 -0.00037478292 0.0080977306 9.219563e-39
-0.0399413 -0.00089389982 -0.00023354696 9.219563e-39
-0.0399413 -0.00030290798 0.017111445 9.219563e-39
-0.0399413 -0.0016314369 0.0044871299 9.219563e-39
-0.0399413 -0.0014249722 -0.0077003608 9.219563e-39
-0.0399413 -0.0013522805 0.0011783419 9.219563e-39
-0.0399413 0.00069986784 0.020717384 9.219563e-39
-0.0399413 -0.0019194515 0.011518808 9.219563e-39
-0.0399413 -0.0014646063 0.016794926 9.219563e-39
-0.0399413 0.00059476163 0.0080014812 9.219563e-39
-0.0399413 -0.00061080407 0.0045656622 9.219563e-39
-0.0399413 -8.1670391e-05 -0.00074643723 9.219563e-39
-0.0399413 0.00013937043 0.019470617 9.219563e-39
-0.0399413 0.00073654647 0.021579796 9.219563e-39
-0.0399413 -0.0013933787 0.020317359 9.219563e-39
-0.0399413 -0.0020103466 -0.012811282 9.219563e-39
-0.0399413 0.0017912986 0.021091359 9.219563e-39
-0.0399413 -0.00088293938 0.013084804 9.219563e-39
-0.0399413 -0.0014603178 -0.0029652559 9.219563e-39
-0.0399413 0.00083228352 0.018469032 9.219563e-39
-0.0399413 -0.00098830904 -0.0012450465 9.219563e-39
-0.0399413 0.0014091748 0.022901941 9.219563e-39
-0.0399413 -0.00074988947 0.018069403 9.219563e-39
-0.0399413 -0.0012519461 -0.0090252878 9.219563e-39
-0.0399413 -0.0015099529 -0.015390239 9.219563e-39
-0.0399413 -0.00090784876 0.014904849 9.219563e-39
-0.0399413 0.0001288889 0.0071364017 9.219563e-39
-0.0399413 -0.0014547232 0.02170291 9.219563e-39
-0.0399413 0.0014335338 0.019964295 9.219563e-39
-0.0399413 -0.0004939292 -0.0022929043 9.219563e-39
-0.0399413 -0.00052660966 0.020854112 9.219563e-39
-0.0399413 -9.3153008e-05 0.003402445 9.219563e-39
-0.0399413 -0.0019241243 0.012990993 9.219563e-39
-0.0399413 -0.0017028815 -0.00068908016 9.219563e-39
-0.0399413 -0.00053378311 0.010317363 9.219563e-39
-0.0399413 -0.00044686589 0.012217146 9.219563e-39
-0.0399413 -0.001306181 0.018771425 9.219563e-39
-0.0399413 0.0012889596 0.015356009 9.219563e-39
-0.0399413 -0.00048403497 0.00080374221 9.219563e-39
-0.0399413 -0.00089604361 0.0091207633 9.219563e-39
-0.0399413 -0.00090287585 0.0058584679 9.219563e-39
-0.0399413 -0.0017885921 0.0078033307 9.219563e-39
-0.0399413 0.0012729561 0.014292759 9.219563e-39
-0.0399413 -0.0012352975 -0.016478306 9.219563e-39
-0.0399413 -0.0010452431 -0.0060528 9.219563e-39
-0.0399413 -0.0020654514 -0.0021855703 9.219563e-39
-0.0399413 -0.0015296352 -0.01053691 9.219563e-39
-0.0399413 -0.0008174823 0.011345359 9.219563e-39
-0.0399413 -0.00079574063 0.022554075 9.219563e-39
-0.0399413 -0.0017723988 0.010259856 9.219563e-39
-0.0399413 -0.0020929603 -0.020935768 9.219563e-39
-0.0399413 -0.0018697503 0.014354613 9.219563e-39
-0.0399413 -4.6823272e-05 0.0021072091 9.219563e-39
-0.0399413 -0.0016852454 0.0063637798 9.219563e-39
-0.0399413 -0.0020960704 0.00028880921 9.219563e-39
-0.0399413 0.00038103203 0.0061252513 9.219563e-39
-0.0399413 -0.0005519478 0.015782567 9.219563e-39
-0.0399413 -0.0010478738 -0.01263027 9.219563e-39
-0.039237011 0.007592096 -0.015328367 9.219563e-39
-0.039010938 0.0086653437 -0.01438543 9.219563e-39
-0.039093867 0.008271642 -0.022469785 9.219563e-39
-0.039057396 0.0084447786 -0.0054975972 9.219563e-39
-0.039314907 0.0072222808 -0.0031840559 9.219563e-39
-0.03921764 0.0076840543 -0.021714265 9.219563e-39
-0.039295517 0.0073143477 0.0017433034 9.219563e-39
-0.039070543 0.008382367 -0.017853364 9.219563e-39
-0.039396595 0.0068344804 0.013262931 9.219563e-39
-0.039410263 0.0067695878 0.0089902012 9.219563e-39
-0.039176829 0.0078777988 -0.024876317 9.219563e-39
-0.039461058 0.0065284562 -0.025452128 9.219563e-39
-0.039129354 0.0081031676 -0.0096199457 9.219563e-39
-0.039314415 0.0072246185 -0.0093396027 9.219563e-39
-0.038951039 0.0089497063 -0.012023389 9.219563e-39
-0.039432738 0.006662895 0.01203182 9.219563e-39
-0.039426588 0.0066920938 -0.02421503 9.219563e-39
-0.039450195 0.006580031 -0.022503676 9.219563e-39
-0.038942676 0.0089894095 -0.019112876 9.219563e-39
-0.039081566 0.0083300378 -0.0130267 9.219563e-39
-0.039294373 0.0073197703 -0.0041315877 9.219563e-39
-0.039436944 0.0066429288 -0.014093488 9.219563e-39
-0.039228063 0.0076345755 -0.01375271 9.219563e-39
-0.039088499 0.0082971258 -0.01086438 9.219563e-39
-0.039130013 0.0081000412 -0.0026932051 9.219563e-39
-0.039281722 0.0073798229 -0.018292211 9.219563e-39
-0.039400198 0.0068173772 -0.020059273 9.219563e-39
-0.039416011 0.0067422995 0.011011281 9.219563e-39
-0.039249197 0.0075342334 -0.011483191 9.219563e-39
-0.039465617 0.006506802 -0.0012794775 9.219563e-39
-0.039119639 0.0081492933 -0.0037833073 9.219563e-39
-0.039314061 0.0072263088 -0.0065190219 9.219563e-39
-0.039380688 0.0069099958 0.0043659066 9.219563e-39
-0.03895447 0.0089334147 -0.023359338 9.219563e-39
-0.039157253 0.0079707326 -0.023753181 9.219563e-39
-0.039115954 0.0081667826 -0.016025893 9.219563e-39
-0.039274093 0.0074160541 0.00028331825 9.219563e-39
-0.0393911 0.0068605728 0.016490165 9.219563e-39
-0.039386995 0.0068800659 -0.0022201878 9.219563e-39
-0.039263438 0.0074666371 -0.026994158 9.219563e-39
-0.039439373 0.0066314042 0.017499235 9.219563e-39
-0.039395206 0.0068410765 0.0070950459 9.219563e-39
-0.038995985 0.0087363273 -0.024250973 9.219563e-39
-0.038943768 0.0089842193 -0.016376883 9.219563e-39
-0.039397437 0.0068304893 -0.015776634 9.219563e-39
-0.03899873 0.0087232962 -0.021300279 9.219563e-39
-0.039438821 0.0066340221 -0.012110443 9.219563e-39
-0.03938986 0.0068664523 -0.0079924297 9.219563e-39
-0.039128475 0.0081073446 0.0012692607 9.219563e-39
-0.039163623 0.0079404945 -0.019691084 9.219563e-39
-0.039264817 0.0074600857 -0.012730667 9.219563e-39
-0.039213821 0.0077021853 -0.0083191078 9.219563e-39
-0.039179616 0.007864574 -0.0014123087 9.219563e-39
-0.039254967 0.0075068409 -0.010373609 9.219563e-39
-0.039208774 0.0077261403 -0.0072567309 9.219563e-39
-0.039379317 0.0069165006 0.0034437347 9.219563e-39
-0.039407425 0.0067830747 0.0099858865 9.219563e-39
-0.039207838 0.0077305841 -0.0049589351 9.219563e-39
-0.039419826 0.0067241937 -0.020910125 9.219563e-39
-0.038863983 0.0093629966 -0.015270161 9.219563e-39
-0.039287943 0.0073502958 0.0059470418 9.219563e-39
-0.039174009 0.0078911791 -0.0207505 9.219563e-39
-0.039464939 0.0065100314 -0.00035909898 9.219563e-39
-0.03869449 0.010026572 0.017492099 9.219563e-39
-0.039169241 0.0078766868 0.015430841 9.219563e-39
-0.038608942 0.010423722 0.014914822 9.219563e-39
-0.038825933 0.00950721 -0.0060330601 9.219563e-39
-0.03892412 0.0090647535 -0.007119691 9.219563e-39
-0.039004181 0.0086580236 0.0058978242 9.219563e-39
-0.039123856 0.0080658766 0.020566389 9.219563e-39
-0.03905917 0.0084157009 0.0036368999 9.219563e-39
-0.038660016 0.010212804 0.0085289385 9.219563e-39
-0.038700793 0.010021733 0.010294939 9.219563e-39
-0.03895044 0.0088609988 0.018349085 9.219563e-39
-0.038963292 0.0088202506 0.013013337 9.219563e-39
-0.038706198 0.010028961 0.00067573244 9.219563e-39
-0.038733788 0.0098859444 0.006024925 9.219563e-39
-0.038754329 0.0097365724 0.022985805 9.219563e-39
-0.038928088 0.0090570105 -0.010231446 9.219563e-39
-0.03899806 0.0086416537 0.019264381 9.219563e-39
-0.039155666 0.007967609 0.0065773344 9.219563e-39
-0.038722549 0.0099822292 -0.0076564541 9.219563e-39
-0.039320126 0.0071935551 0.014729448 9.219563e-39
-0.038620118 0.010379588 0.012904764 9.219563e-39
-0.039139565 0.0080053508 0.01728992 9.219563e-39
-0.039237347 0.0075871912 0.0094075138 9.219563e-39
-0.038724679 0.0098840669 0.019110346 9.219563e-39
-0.039011765 0.0086489394 -0.0017754739 9.219563e-39
-0.039238747 0.0075478852 0.019376608 9.219563e-39
-0.039027691 0.0085451929 0.0077253231 9.219563e-39
-0.038776215 0.009675825 0.011284786 9.219563e-39
-0.038883984 0.0092197331 0.0011562961 9.219563e-39
-0.038702603 0.010064187 -0.0050383932 9.219563e-39
-0.038858343 0.0093264962 0.0040963204 9.219563e-39
-0.039309468 0.0072296918 0.018443843 9.219563e-39
-0.038769342 0.0097740982 -0.0090010194 9.219563e-39
-0.038986951 0.0087084034 0.014339351 9.219563e-39
-0.039126504 0.0080484059 0.022215495 9.219563e-39
-0.039121468 0.0080994572 0.013690329 9.219563e-39
-0.038759485 0.0098016262 -0.0037785736 9.219563e-39
-0.038672719 0.010189958 -0.0020181732 9.219563e-39
-0.03888173 0.009210078 0.0071737161 9.219563e-39
-0.038924661 0.009022289 0.0049849157 9.219563e-39
-0.039026711 0.0085677635 0.0022428606 9.219563e-39
-0.038820043 0.0095710242 -0.017246017 9.219563e-39
-0.038838107 0.0094004134 0.0095442859 9.219563e-39
-0.039263651 0.007456982 0.012652943 9.219563e-39
-0.039227873 0.0076233414 0.01149343 9.219563e-39
-0.038667437 0.010197032 0.0030994972 9.219563e-39
-0.038774926 0.0096676415 0.015534376 9.219563e-39
-0.039102927 0.0082138637 0.0045598038 9.219563e-39
-0.038723003 0.0098863393 0.0207268 9.219563e-39
-0.038931858 0.0089669218 0.01184547 9.219563e-39
-0.038666174 0.010213963 -0.00028318647 9.219563e-39
-0.038633455 0.010354353 0.0022122397 9.219563e-39
-0.038937241 0.0089245774 0.017258482 9.219563e-39
-0.038865596 0.0093161035 -0.0027260021 9.219563e-39
-0.038930833 0.0090379165 -0.0082255686 9.219563e-39
-0.038633239 0.010308364 0.016419074 9.219563e-39
-0.038859516 0.0092615411 0.022132924 9.219563e-39
-0.038829103 0.0095167141 -0.013266996 9.219563e-39
-0.039223772 0.0076521607 0.0084110815 9.219563e-39
-0.03888369 0.0091582667 0.020157015 9.219563e-39
-0.039284088 0.007336298 0.021076286 9.219563e-39
-0.039087355 0.0082984138 0.00038427452 9.219563e-39
-0.038857736 0.0093424534 0.00010194787 9.219563e-39
-0.038748566 0.0099073537 -0.020761108 9.219563e-39
-0.039056439 0.008386706 0.01615864 9.219563e-39
-0.038670544 0.010146764 0.014037486 9.219563e-39
-0.038814675 0.0095746638 -0.010966918 9.219563e-39
-0.038856514 0.0093525033 -0.001258667 9.219563e-39
-0.038991526 0.008705724 0.0088627189 9.219563e-39
-0.039331354 0.0071178442 0.022201095 9.219563e-39
-0.038947426 0.0089488076 -0.0040714191 9.219563e-39
-0.038751032 0.0098874997 -0.018144548 9.219563e-39
-0.039664805 -0.0047082971 -0.019973729 9.219563e-39
-0.039921138 -0.0023509702 0.0011499779 9.219563e-39
-0.03983546 -0.0031389063 0.0031662059 9.219563e-39
-0.039781582 -0.0036343683 -0.01877691 9.219563e-39
-0.039537836 -0.0058759549 -0.028858671 9.219563e-39
-0.039701868 -0.0043674698 -0.016413502 9.219563e-39
-0.03978854 -0.0035703764 -0.019871753 9.219563e-39
-0.039727658 -0.0041303001 -0.026756518 9.219563e-39
-0.039877716 -0.0027503069 0.0079387538 9.219563e-39
-0.039714329 -0.0042528706 -0.02114176 9.219563e-39
-0.039906494 -0.0024856504 0.0093167918 9.219563e-39
-0.039938536 -0.0021909876 -0.016483016 9.219563e-39
-0.039812829 -0.0033470255 0.0057176538 9.219563e-39
-0.039629146 -0.0050362363 -0.017913735 9.219563e-39
-0.039863434 -0.0028816429 -0.028971581 9.219563e-39
-0.039679907 -0.0045694299 -0.011237461 9.219563e-39
-0.039892171 -0.0026173617 0.0041056005 9.219563e-39
-0.039939001 -0.0021867009 -0.017764913 9.219563e-39
-0.039827667 -0.0032105749 -0.0022187503 9.219563e-39
-0.039829876 -0.003190266 -0.01299522 9.219563e-39
-0.03954469 -0.0058129155 -0.025540123 9.219563e-39
-0.039789777 -0.0035590278 -0.015735848 9.219563e-39
-0.039790899 -0.0035487036 -0.014677746 9.219563e-39
-0.039934553 -0.0022276181 -0.021954926 9.219563e-39
-0.039786331 -0.0035907046 -0.0072485036 9.219563e-39
-0.039725706 -0.0041482379 -0.013225518 9.219563e-39
-0.039834257 -0.0031499702 0.010148624 9.219563e-39
-0.039905258 -0.002497029 -0.0072908471 9.219563e-39
-0.039828941 -0.0031988365 -0.0033324934 9.219563e-39
-0.039708339 -0.0043079439 -0.0090401815 9.219563e-39
-0.039685395 -0.0045189387 -0.010143586 9.219563e-39
-0.039667636 -0.004682261 -0.025322298 9.219563e-39
-0.03990246 -0.0025227349 -0.0047362149 9.219563e-39
-0.039764367 -0.0037927085 -0.027622795 9.219563e-39
-0.039876033 -0.0027657724 0.013862424 9.219563e-39
-0.039782416 -0.0036267131 -0.02513927 9.219563e-39
-0.039798539 -0.0034784239 0.0016419869 9.219563e-39
-0.039939485 -0.0021822511 0.01933411 9.219563e-39
-0.039794784 -0.0035129711 -0.0047228211 9.219563e-39
-0.039796796 -0.0034944837 -0.022904772 9.219563e-39
-0.039593406 -0.0053649135 -0.020941451 9.219563e-39
-0.039638184 -0.0049531218 -0.015252246 9.219563e-39
-0.039930318 -0.0022665719 -0.028084984 9.219563e-39
-0.039647572 -0.0048667784 -0.028209044 9.219563e-39
-0.039798774 -0.0034762688 -0.0094842287 9.219563e-39
-0.039815042 -0.0033266589 -0.0012441332 9.219563e-39
-0.039923027 -0.0023336145 0.015102179 9.219563e-39
-0.039676309 -0.0046025072 -0.0065832478 9.219563e-39
-0.039775044 -0.0036945138 -0.00015306323 9.219563e-39
-0.03989432 -0.0025976147 -0.010165891 9.219563e-39
-0.039761148 -0.003822299 -0.021971123 9.219563e-39
-0.039900046 -0.0025449344 -0.0090028876 9.219563e-39
-0.039838757 -0.003108582 -0.017195068 9.219563e-39
-0.039732128 -0.004089158 -0.0021071043 9.219563e-39
-0.039542433 -0.0058336998 -0.026787331 9.219563e-39
-0.039883625 -0.0026959521 -0.025110485 9.219563e-39
-0.039599035 -0.0053131632 -0.02316447 9.219563e-39
-0.039902929 -0.0025184294 0.0067875069 9.219563e-39
-0.03990664 -0.0024842913 -0.0038532319 9.219563e-39
-0.039918032 -0.0023795585 0.016329892 9.219563e-39
-0.039624453 -0.00507941 -0.013630333 9.219563e-39
-0.039815675 -0.0033208411 -0.0080552241 9.219563e-39
-0.039863162 -0.0028841575 0.011563258 9.219563e-39
-0.039758399 -0.003847589 -0.01784124 9.219563e-39
-0.039586965 -0.0054241535 -0.021967947 9.219563e-39
-0.039896339 -0.0025790301 0.0051120454 9.219563e-39
-0.039911967 -0.0024353247 -0.015602426 9.219563e-39
-0.039686248 -0.0045111119 -0.022591548 9.219563e-39
-0.039822374 -0.0032592574 -0.020999825 9.219563e-39
-0.039855104 -0.0029582453 -0.0055562435 9.219563e-39
-0.039920989 -0.0023523509 -0.014425163 9.219563e-39
-0.039781161 -0.003638265 -0.010715636 9.219563e-39
-0.039928664 -0.0022817554 -0.026529547 9.219563e-39
-0.039536275 -0.0058903303 -0.023805656 9.219563e-39
-0.039776612 -0.0036800988 -0.012246402 9.219563e-39
-0.039582916 -0.0054613738 -0.01703552 9.219563e-39
-0.039904237 -0.0025063872 -0.0063406541 9.219563e-39
-0.039926521 -0.0023014788 0.01835319 9.219563e-39
-0.03971697 -0.0042285635 -0.0056197178 9.219563e-39
-0.039830782 -0.0031819155 0.00056741032 9.219563e-39
-0.039604291 -0.0052648154 -0.016138613 9.219563e-39
-0.039908912 -0.0024633997 -0.011413897 9.219563e-39
-0.039478648 -0.0064202785 0.0007252252 9.219563e-39
-0.039648548 -0.0048578242 0.0026886561 9.219563e-39
-0.039694313 -0.0044369292 0.00099400978 9.219563e-39
-0.039502941 -0.006196849 0.010452112 9.219563e-39
-0.039890163 -0.0026358515 0.021502709 9.219563e-39
-0.039702203 -0.0043643718 0.00859222 9.219563e-39
-0.039762266 -0.0038120083 0.0095960675 9.219563e-39
-0.039644431 -0.0048956722 0.014250387 9.219563e-39
-0.03967553 -0.0046096654 -0.00020410231 9.219563e-39
-0.039490964 -0.0063070105 0.012145772 9.219563e-39
-0.039584808 -0.0054439791 0.015940538 9.219563e-39
-0.039722186 -0.0041806125 0.012391875 9.219563e-39
-0.039585482 -0.0054377792 -0.010783958 9.219563e-39
-0.039577097 -0.0055149044 -0.0069396957 9.219563e-39
-0.039700713 -0.004378086 0.0057663792 9.219563e-39
-0.039708592 -0.0043056086 0.019555237 9.219563e-39
-0.039600339 -0.0053011589 0.0074729631 9.219563e-39
-0.039522238 -0.0060193869 0.0023863472 9.219563e-39
-0.039549563 -0.0057681091 0.0082605239 9.219563e-39
-0.039517775 -0.0060604326 -0.019769223 9.219563e-39
-0.039506141 -0.0061674342 0.016844433 9.219563e-39
-0.039752457 -0.003902209 0.011552533 9.219563e-39
-0.039514843 -0.0060874112 0.0060324003 9.219563e-39
-0.039551467 -0.0057505951 -0.0094403513 9.219563e-39
-0.03955251 -0.0057410244 0.018449491 9.219563e-39
-0.039522234 -0.0060194251 0.022235921 9.219563e-39
-0.039496463 -0.0062564351 -0.0075100688 9.219563e-39
-0.039605379 -0.0052548093 0.0055099251 9.219563e-39
-0.039664507 -0.0047110347 0.0067287711 9.219563e-39
-0.039648909 -0.004854504 0.016722087 9.219563e-39
-0.039595041 -0.0053498694 0.0044829538 9.219563e-39
-0.039474033 -0.0064627156 0.020921353 9.219563e-39
-0.039618414 -0.0051349271 -0.007829152 9.219563e-39
-0.039772011 -0.0037224083 0.018225677 9.219563e-39
-0.039785605 -0.0035973762 0.0078706769 9.219563e-39
-0.0395208 -0.0060326145 -0.0085272975 9.219563e-39
-0.039629702 -0.0050311186 0.01902161 9.219563e-39
-0.03975594 -0.0038702076 0.0040456341 9.219563e-39
-0.039550588 -0.0057586846 -0.018948661 9.219563e-39
-0.039564338 -0.0056322305 -0.00032784516 9.219563e-39
-0.039501112 -0.0062136957 -0.011827685 9.219563e-39
-0.039590292 -0.0053935689 -0.012379441 9.219563e-39
-0.039637141 -0.004962726 0.017669003 9.219563e-39
-0.039501332 -0.006211671 -0.010181094 9.219563e-39
-0.039729476 -0.0041135778 0.021723185 9.219563e-39
-0.039519072 -0.0060485201 -0.014600223 9.219563e-39
-0.039635934 -0.0049738083 -0.0020203507 9.219563e-39
-0.039599042 -0.0053130765 0.015060608 9.219563e-39
-0.039480284 -0.0064052222 -0.0052988138 9.219563e-39
-0.039690606 -0.0044710296 0.0019286753 9.219563e-39
-0.039686132 -0.0045121852 -0.0011735471 9.219563e-39
-0.039861578 -0.0028986954 0.020449586 9.219563e-39
-0.039500467 -0.0062196106 0.015380576 9.219563e-39
-0.039757624 -0.0038547094 0.017173076 9.219563e-39
-0.039791502 -0.0035431641 0.0066104936 9.219563e-39
-0.03965253 -0.0048211878 0.020475743 9.219563e-39
-0.039832454 -0.0031665326 0.015647788 9.219563e-39
-0.039519947 -0.0060404884 0.0092487 9.219563e-39
-0.039807562 -0.0033954729 0.022373097 9.219563e-39
-0.039550435 -0.005760103 0.01375524 9.219563e-39
-0.039496377 -0.0062572202 -0.013393531 9.219563e-39
-0.03991412 -0.0024155246 0.022460336 9.219563e-39
-0.039628454 -0.0050426158 0.02205468 9.219563e-39
-0.039541818 -0.0058393222 -0.0037916994 9.219563e-39
-0.039610166 -0.0052107805 0.01238632 9.219563e-39
-0.039745923 -0.003962324 0.013744255 9.219563e-39
-0.039541535 -0.0058419402 0.020127362 9.219563e-39
-0.039557219 -0.0056977039 0.0013656825 9.219563e-39
-0.03963872 -0.0049481886 -0.0036776487 9.219563e-39
-0.039625924 -0.0050658705 -0.0046660276 9.219563e-39
-0.039502379 -0.0062020537 -0.0019425914 9.219563e-39
-0.039658304 -0.004768074 0.010878655 9.219563e-39
-0.039528426 -0.0059625083 0.0035710305 9.219563e-39
-0.039736383 -0.0040500402 0.016278675 9.219563e-39
-0.039333399 -0.007134506 -0.014791382 9.219563e-39
-0.039410792 -0.0067670937 0.016114172 9.219563e-39
-0.038915984 -0.0091161225 -0.020062815 9.219563e-39
-0.039391458 -0.0068588806 -0.0025079632 9.219563e-39
-0.038971629 -0.0088519529 -0.023279089 9.219563e-39
-0.039259568 -0.0074850093 -0.025115481 9.219563e-39
-0.038942423 -0.0089906091 -0.014270918 9.219563e-39
-0.039272361 -0.0074242651 -0.0056043728 9.219563e-39
-0.039357439 -0.0070203813 -0.0081860106 9.219563e-39
-0.039167151 -0.0079237418 -0.019974206 9.219563e-39
-0.039309461 -0.0072481465 -0.017862458 9.219563e-39
-0.039297815 -0.0073034293 0.010751262 9.219563e-39
-0.038799558 -0.009668841 -0.021815091 9.219563e-39
-0.039410278 -0.0067695328 0.017933153 9.219563e-39
-0.039230738 -0.0076218755 -0.0089208204 9.219563e-39
-0.039339151 -0.0071071964 -0.013899416 9.219563e-39
-0.039150838 -0.0080011887 0.0020961012 9.219563e-39
-0.039259456 -0.0074855261 0.00019098785 9.219563e-39
-0.039271805 -0.0074269073 -0.021675574 9.219563e-39
-0.039389763 -0.0068669268 0.0080764843 9.219563e-39
-0.039442345 -0.0066172821 -0.025925508 9.219563e-39
-0.03920253 -0.0077557755 0.0051742131 9.219563e-39
-0.039110571 -0.0081923548 -0.01511683 9.219563e-39
-0.03907039 -0.008383099 -0.0027138235 9.219563e-39
-0.039349157 -0.0070596905 0.0091377366 9.219563e-39
-0.039056435 -0.0084493421 -0.021922044 9.219563e-39
-0.039093565 -0.0082730781 -0.0046583125 9.219563e-39
-0.039180934 -0.0078582987 -0.012622275 9.219563e-39
-0.039375458 -0.0069348332 -0.00053927157 9.219563e-39
-0.039423335 -0.0067075407 -0.0062809717 9.219563e-39
-0.039089873 -0.0082906075 -0.024796002 9.219563e-39
-0.039367899 -0.0069707124 -0.027191279 9.219563e-39
-0.039362136 -0.0069980817 0.0025626805 9.219563e-39
-0.039403331 -0.0068025077 -0.0095090168 9.219563e-39
-0.039435375 -0.0066503864 -0.015875107 9.219563e-39
-0.039131336 -0.0080937734 -0.00048497837 9.219563e-39
-0.03920877 -0.0077261673 -0.016295342 9.219563e-39
-0.039325744 -0.0071708425 -0.024012815 9.219563e-39
-0.038984198 -0.0087922933 -0.013212965 9.219563e-39
-0.039103996 -0.0082235606 -0.0071419659 9.219563e-39
-0.039454166 -0.0065611745 0.0044193035 9.219563e-39
-0.039215926 -0.0076921801 -0.022557784 9.219563e-39
-0.039374657 -0.0069386289 -0.012874519 9.219563e-39
-0.03914547 -0.0080266753 -0.018732416 9.219563e-39
-0.039185841 -0.0078350119 -0.0017092465 9.219563e-39
-0.039317671 -0.0072091701 -0.0072220187 9.219563e-39
-0.039275561 -0.0074090855 -0.0042304583 9.219563e-39
-0.039461583 -0.0065259552 0.013043369 9.219563e-39
-0.039078798 -0.0083431778 -0.011333775 9.219563e-39
-0.039416812 -0.0067385095 -0.022627523 9.219563e-39
-0.03937643 -0.0069302069 0.0067088832 9.219563e-39
-0.039054196 -0.0084599759 -0.009701902 9.219563e-39
-0.039085541 -0.0083111804 -0.0082863551 9.219563e-39
-0.039077379 -0.0083499309 -0.017630802 9.219563e-39
-0.039096531 -0.0082589993 -0.0210362 9.219563e-39
-0.039024383 -0.0086015128 -0.0057010381 9.219563e-39
-0.038920887 -0.009092845 -0.016468281 9.219563e-39
-0.039279263 -0.0073914961 0.0033689109 9.219563e-39
-0.039393656 -0.0068484396 -0.019142073 9.219563e-39
-0.039149154 -0.008009172 -0.013543871 9.219563e-39
-0.039451823 -0.0065722987 -0.016989203 9.219563e-39
