# .PCD v0.7 - Point Cloud Data file format
VERSION 0.7
FIELDS x y z rgb
SIZE 4 4 4 4
TYPE F F F F
COUNT 1 1 1 1
WIDTH 921
HEIGHT 1
VIEWPOINT 0 0 0 1 0 0 0
POINTS 921
DATA ascii
0.012457363 0.011657782 -0.00078614108 9.219563e-39
0.01243797 0.0006778781 -0.0011437045 9.219563e-39
0.012428194 -0.0061086207 -0.0013239528 9.219563e-39
0.012438621 0.0078906193 -0.0011316964 9.219563e-39
0.012427928 -0.00051594462 -0.001328854 9.219563e-39
0.012447399 0.0082272729 -0.00096985837 9.219563e-39
0.012464383 0.0026088413 -0.00065670384 9.219563e-39
0.012452482 0.013320625 -0.00087613153 9.219563e-39
0.012453306 0.0087979408 -0.00086092408 9.219563e-39
0.012455377 0.0099158464 -0.00082276075 9.219563e-39
0.012448866 0.015101624 -0.00094280508 9.219563e-39
0.012441979 0.0058025122 -0.0010697881 9.219563e-39
0.012441597 0.011926659 -0.0010768328 9.219563e-39
0.012480257 0.011032034 -0.00036401243 9.219563e-39
0.012462435 0.014885086 -0.0006926122 9.219563e-39
0.012441427 -0.0019053764 -0.0010799699 9.219563e-39
0.01248443 0.014404483 -0.0002870679 9.219563e-39
0.012429143 -0.0016132749 -0.001306457 9.219563e-39
0.012437014 0.009923554 -0.0011613356 9.219563e-39
0.012442602 -0.00025887237 -0.0010583036 9.219563e-39
0.012449566 -0.0051222611 -0.00092988776 9.219563e-39
0.012428028 0.00538636 -0.001327025 9.219563e-39
0.01247058 0.007361806 -0.00054245524 9.219563e-39
0.012454486 0.0064692334 -0.00083918351 9.219563e-39
0.012446511 0.0025119213 -0.00098622823 9.219563e-39
0.012484238 0.013549726 -0.0002906271 9.219563e-39
0.012461305 0.0067864941 -0.00071346242 9.219563e-39
0.012462309 0.0076104756 -0.00069495046 9.219563e-39
0.01247004 0.0083657773 -0.00055240036 9.219563e-39
0.012454064 0.0037517054 -0.0008469774 9.219563e-39
0.012437083 -0.00086790329 -0.0011600587 9.219563e-39
0.012434804 -0.0098768501 -0.0012020774 9.219563e-39
0.012430797 -0.0038718535 -0.0012759486 9.219563e-39
0.01244268 0.015868338 -0.0010568595 9.219563e-39
0.012466582 0.011235779 -0.00061617291 9.219563e-39
0.012446536 0.011452587 -0.00098576094 9.219563e-39
0.01244861 0.0045959987 -0.00094752491 9.219563e-39
0.012436588 -0.005731862 -0.0011691867 9.219563e-39
0.012436415 0.015575774 -0.0011723696 9.219563e-39
0.012429457 -0.011316589 -0.0013006638 9.219563e-39
0.012485802 0.013047983 -0.00026177659 9.219563e-39
0.012450302 0.012381102 -0.0009163263 9.219563e-39
0.012482888 0.0095574129 -0.00031551663 9.219563e-39
0.012432318 0.006386308 -0.0012479112 9.219563e-39
0.012431821 0.012850584 -0.0012570745 9.219563e-39
0.012454817 0.0028489344 -0.00083308609 9.219563e-39
0.012430795 -0.0011542082 -0.0012760096 9.219563e-39
0.012435757 -0.0080281235 -0.0011845217 9.219563e-39
0.012428354 0.013944724 -0.0013209974 9.219563e-39
0.012441867 0.014250246 -0.0010718522 9.219563e-39
0.012426774 -0.0054403408 -0.0013501408 9.219563e-39
0.012437291 0.0086467331 -0.001156221 9.219563e-39
0.012465886 0.008963828 -0.00062899856 9.219563e-39
0.012436228 0.0042634676 -0.0011758256 9.219563e-39
0.01246326 0.0079845302 -0.00067739509 9.219563e-39
0.012429737 -0.0066206674 -0.0012954904 9.219563e-39
0.012430238 -0.012479345 -0.001286277 9.219563e-39
0.012467084 0.0050515085 -0.0006069073 9.219563e-39
0.012465305 0.015623846 -0.00063970732 9.219563e-39
0.012430555 0.010905151 -0.0012804109 9.219563e-39
0.012441129 0.0090732537 -0.0010854546 9.219563e-39
0.01244075 0.0013108226 -0.0010924401 9.219563e-39
0.012428769 0.014507794 -0.0013133506 9.219563e-39
0.012445075 -0.0015591384 -0.0010127176 9.219563e-39
0.012431062 -0.010599094 -0.0012710823 9.219563e-39
0.01244077 0.0075807162 -0.0010920791 9.219563e-39
0.012445133 -0.0044512153 -0.0010116363 9.219563e-39
0.012476987 0.012008147 -0.00042430204 9.219563e-39
0.012455816 0.013647154 -0.00081464672 9.219563e-39
0.012446497 0.0061480566 -0.00098648819 9.219563e-39
0.012458722 0.0032734156 -0.00076108758 9.219563e-39
0.012434033 0.009604116 -0.0012162898 9.219563e-39
0.012430042 -0.0069420333 -0.0012898771 9.219563e-39
0.012452494 0.010426418 -0.00087590615 9.219563e-39
0.01242731 -0.012922253 -0.0013402617 9.219563e-39
0.012447372 -0.0033846113 -0.0009703504 9.219563e-39
0.012483846 0.015542625 -0.00029783766 9.219563e-39
0.012481913 0.0087478682 -0.00033349384 9.219563e-39
0.012435528 -0.004201395 -0.0011887378 9.219563e-39
0.01243829 0.0019930888 -0.0011378103 9.219563e-39
0.0124446 -0.0060666217 -0.0010214758 9.219563e-39
0.012453042 -0.00088262744 -0.00086580089 9.219563e-39
0.012449906 0.011140624 -0.00092362665 9.219563e-39
0.012457569 -0.00055189349 -0.00078233279 9.219563e-39
0.012494886 0.013812007 -9.4282499e-05 9.219563e-39
0.012433589 -0.0026906217 -0.0012244777 9.219563e-39
0.012436475 -0.010273478 -0.0011712688 9.219563e-39
0.012440398 -0.008589454 -0.0010989353 9.219563e-39
0.012455055 0.0093115279 -0.0008286818 9.219563e-39
0.012489151 0.012299443 -0.00020003425 9.219563e-39
0.012428124 -0.0021304181 -0.0013252398 9.219563e-39
0.012438448 0.0016446869 -0.0011348926 9.219563e-39
0.012476768 0.015127189 -0.0004283509 9.219563e-39
0.012449108 0.004107317 -0.00093834376 9.219563e-39
0.012462963 0.015307844 -0.00068287214 9.219563e-39
0.012471559 0.0092945918 -0.00052438531 9.219563e-39
0.0124518 -0.0026898282 -0.00088871224 9.219563e-39
0.012462687 0.0096040349 -0.0006879869 9.219563e-39
0.012462342 0.014473959 -0.00069433625 9.219563e-39
0.012454029 0.00091993914 -0.00084760418 9.219563e-39
0.012428032 0.008258706 -0.0013269348 9.219563e-39
0.01245943 0.0014227717 -0.00074803102 9.219563e-39
0.01246338 0.0043876469 -0.00067520398 9.219563e-39
0.012435772 0.0038378362 -0.0011842253 9.219563e-39
0.012460315 0.010737658 -0.0007317221 9.219563e-39
0.012439285 0.014818706 -0.0011194565 9.219563e-39
0.012429429 -0.0090804137 -0.0013011857 9.219563e-39
0.012429945 0.0046429345 -0.0012916604 9.219563e-39
0.012477002 0.011516363 -0.00042404048 9.219563e-39
0.012478565 0.008070834 -0.00039521593 9.219563e-39
0.012457637 0.00058490242 -0.00078109262 9.219563e-39
0.01225605 -0.013483413 -0.0023927221 9.219563e-39
0.012312261 -0.013097885 -0.0020497493 9.219563e-39
0.012397327 0.0038714933 -0.0015307169 9.219563e-39
0.012425121 -0.013759479 -0.0013611264 9.219563e-39
0.012331079 6.4357439e-05 -0.0019349303 9.219563e-39
0.012398544 -0.0033395726 -0.0015232896 9.219563e-39
0.012375059 0.00474951 -0.0016665891 9.219563e-39
0.012337651 -0.0080057373 -0.0018948308 9.219563e-39
0.012396141 -0.0047681341 -0.0015379525 9.219563e-39
0.01232342 -0.0052442248 -0.0019816682 9.219563e-39
0.012247872 -0.012701458 -0.0024426281 9.219563e-39
0.012344728 -0.01160097 -0.001851647 9.219563e-39
0.012309589 -0.0098930784 -0.0020660507 9.219563e-39
0.012294416 -0.012196776 -0.0021586327 9.219563e-39
0.012332506 0.00050203421 -0.0019262241 9.219563e-39
0.012321964 -0.0088645779 -0.0019905469 9.219563e-39
0.012363293 -0.0094903763 -0.0017383759 9.219563e-39
0.012353404 -0.0041793683 -0.0017987136 9.219563e-39
0.012398011 -0.0040176772 -0.0015265399 9.219563e-39
0.01235233 -0.012677314 -0.0018052708 9.219563e-39
0.012347692 -0.010992086 -0.001833566 9.219563e-39
0.012358497 -0.008301151 -0.0017676379 9.219563e-39
0.012358204 -0.0036554202 -0.0017694252 9.219563e-39
0.012356875 0.0028208906 -0.0017775397 9.219563e-39
0.012408517 -0.0044902829 -0.0014624342 9.219563e-39
0.012283681 -0.0050469316 -0.0022241352 9.219563e-39
0.012406659 -0.0093221432 -0.0014737701 9.219563e-39
0.012297501 -0.011318113 -0.0021398107 9.219563e-39
0.012365916 -0.015566125 -0.0017223747 9.219563e-39
0.01233358 0.00079586747 -0.0019196679 9.219563e-39
0.012372608 -0.0054677562 -0.0016815381 9.219563e-39
0.01238227 -0.0070208902 -0.0016225852 9.219563e-39
0.01228483 -0.010777771 -0.0022171196 9.219563e-39
0.012419213 0.0058588441 -0.0013971758 9.219563e-39
0.012354841 0.0032066337 -0.001789942 9.219563e-39
0.012296747 -0.0077953902 -0.0021444054 9.219563e-39
0.012273447 -0.014971217 -0.0022865769 9.219563e-39
0.012388716 0.00054332527 -0.0015832579 9.219563e-39
0.012328573 -0.014297849 -0.001950224 9.219563e-39
0.012422265 -0.0086906152 -0.0013785518 9.219563e-39
0.012394809 0.009896352 -0.0015460767 9.219563e-39
0.012335567 -0.0056385747 -0.0019075508 9.219563e-39
0.012386745 0.00011777125 -0.0015952842 9.219563e-39
0.01236449 -0.0027847339 -0.0017310736 9.219563e-39
0.012333305 -0.00031808257 -0.0019213532 9.219563e-39
0.012315007 -0.013412664 -0.0020329936 9.219563e-39
0.012372692 0.0055941157 -0.0016810285 9.219563e-39
0.012235074 -0.014206921 -0.00252071 9.219563e-39
0.012423249 0.01350564 -0.001372547 9.219563e-39
0.012327294 -0.014990357 -0.0019580268 9.219563e-39
0.012384752 0.0042231441 -0.0016074404 9.219563e-39
0.012410517 -0.0030280042 -0.0014502353 9.219563e-39
0.012302333 -0.0031821823 -0.0021103243 9.219563e-39
0.012365292 0.0025092252 -0.0017261766 9.219563e-39
0.012369954 -0.010010339 -0.0016977335 9.219563e-39
0.012355513 -0.010470278 -0.001785844 9.219563e-39
0.012253115 -0.015476195 -0.0024106365 9.219563e-39
0.012420991 -0.011973429 -0.0013863309 9.219563e-39
0.012327339 -0.0068537486 -0.0019577513 9.219563e-39
0.012318928 -0.0072634425 -0.0020090726 9.219563e-39
0.012410515 0.0014960058 -0.0014502468 9.219563e-39
0.012282491 -0.012476647 -0.0022313986 9.219563e-39
0.012335223 -0.011902296 -0.0019096448 9.219563e-39
0.012279676 -0.0066818185 -0.0022485715 9.219563e-39
0.012415554 -0.010987854 -0.0014195004 9.219563e-39
0.012388673 0.0093635255 -0.0015835166 9.219563e-39
0.012261619 -0.014460224 -0.0023587495 9.219563e-39
0.012378819 -0.012962842 -0.0016436388 9.219563e-39
0.012369198 -0.0017697113 -0.0017023461 9.219563e-39
0.012384619 -0.010731596 -0.0016082537 9.219563e-39
0.012266138 -0.011068709 -0.0023311784 9.219563e-39
0.012400238 -0.0064148717 -0.0015129531 9.219563e-39
0.012380299 0.0068686991 -0.0016346088 9.219563e-39
0.012228483 -0.014754746 -0.0025609273 9.219563e-39
0.012300202 -0.015480695 -0.0021233293 9.219563e-39
0.012322985 -0.0044085081 -0.0019843227 9.219563e-39
0.012340082 -0.0063526114 -0.0018800012 9.219563e-39
0.012383404 0.0087380698 -0.001615665 9.219563e-39
0.012383458 -0.012421944 -0.0016153383 9.219563e-39
0.012320566 -0.0011988123 -0.0019990767 9.219563e-39
0.012387193 -0.0067301295 -0.0015925516 9.219563e-39
0.012259923 -0.013199555 -0.0023690981 9.219563e-39
0.012413125 0.0076688998 -0.0014343256 9.219563e-39
0.012298361 -0.0040889434 -0.0021345627 9.219563e-39
0.012412669 -0.008282532 -0.0014371017 9.219563e-39
0.012322896 -0.0092592379 -0.00198486 9.219563e-39
0.012278014 -0.0057794191 -0.002258711 9.219563e-39
0.012399571 -0.014164332 -0.0015170232 9.219563e-39
0.012382543 -0.00081362523 -0.0016209196 9.219563e-39
0.012343463 -0.013650687 -0.0018593672 9.219563e-39
0.012384698 -0.011425889 -0.0016077732 9.219563e-39
0.012368524 -0.0076933084 -0.0017064611 9.219563e-39
0.012307918 -0.010234692 -0.0020762493 9.219563e-39
0.012328258 -0.015755573 -0.0019521425 9.219563e-39
0.01240115 -0.01477071 -0.0015073885 9.219563e-39
0.012261893 -0.0098141022 -0.002357078 9.219563e-39
0.012370216 0.0060741431 -0.0016961379 9.219563e-39
0.0124025 0.005004839 -0.0014991492 9.219563e-39
0.01242591 0.011371911 -0.0013563122 9.219563e-39
0.012418862 -0.01571914 -0.0013993171 9.219563e-39
0.012235278 -0.013766025 -0.0025194685 9.219563e-39
0.012388807 -0.0090020774 -0.0015827032 9.219563e-39
0.012406063 0.001911321 -0.0014774087 9.219563e-39
0.012404723 0.0029891082 -0.0014855857 9.219563e-39
0.012407955 -0.015397999 -0.0014658679 9.219563e-39
0.012283925 -0.011833115 -0.0022226435 9.219563e-39
0.012363202 -0.0013280903 -0.0017389305 9.219563e-39
0.012385629 0.0034601924 -0.0016020901 9.219563e-39
0.012328182 -0.013985331 -0.001952608 9.219563e-39
0.012254802 -0.010174416 -0.0024003459 9.219563e-39
0.012377861 -0.013879405 -0.0016494886 9.219563e-39
0.012384815 0.0021587098 -0.0016070582 9.219563e-39
0.012378552 -0.0051208814 -0.0016452738 9.219563e-39
0.012399399 -0.00024881252 -0.0015180757 9.219563e-39
0.012296179 -0.0047257482 -0.0021478771 9.219563e-39
0.012309797 -0.0018782023 -0.0020647841 9.219563e-39
0.012382627 -0.015093165 -0.0016204044 9.219563e-39
0.012358335 0.0017164262 -0.0017686255 9.219563e-39
0.012333714 -0.0024437318 -0.0019188486 9.219563e-39
0.012328464 -0.014680662 -0.001950891 9.219563e-39
0.012417452 -0.0096319718 -0.0014079165 9.219563e-39
0.012331928 -0.008542018 -0.0019297515 9.219563e-39
0.012374396 -0.014529257 -0.0016706254 9.219563e-39
0.01230368 -0.0022086166 -0.0021021101 9.219563e-39
0.012380268 0.00085327955 -0.0016347999 9.219563e-39
0.012420346 -0.0074912244 -0.0013902646 9.219563e-39
0.012354519 -0.002114479 -0.0017919093 9.219563e-39
0.012284597 -0.0062401392 -0.0022185445 9.219563e-39
0.012385545 -0.0060339775 -0.0016026001 9.219563e-39
0.012410414 -0.010344188 -0.0014508622 9.219563e-39
0.012398337 0.0012046176 -0.0015245496 9.219563e-39
0.012335863 -0.0033854651 -0.0019057443 9.219563e-39
0.012342108 -0.0049207183 -0.0018676323 9.219563e-39
0.012283546 -0.013776474 -0.0022249597 9.219563e-39
0.012252577 -0.011514674 -0.0024139185 9.219563e-39
0.012402265 -0.013311132 -0.001500581 9.219563e-39
0.012424413 -0.014413292 -0.0013654476 9.219563e-39
0.012390701 -0.0080141779 -0.0015711444 9.219563e-39
0.012281914 0.010341527 -0.0022349115 9.219563e-39
0.012239756 -0.0077004535 -0.0024921447 9.219563e-39
0.012217649 -0.0099379048 -0.0026270289 9.219563e-39
0.012370658 0.015221507 -0.0016934364 9.219563e-39
0.012412467 0.015722532 -0.0014383356 9.219563e-39
0.012271363 0.00099632493 -0.0022992892 9.219563e-39
0.01226816 0.0028881337 -0.0023188342 9.219563e-39
0.012238136 -0.010604594 -0.0025020298 9.219563e-39
0.012402245 0.012656594 -0.0015007057 9.219563e-39
0.012308972 0.0044635697 -0.002069819 9.219563e-39
0.012264362 0.0092464872 -0.0023420153 9.219563e-39
0.01224896 0.0048138192 -0.0024359846 9.219563e-39
0.012215538 0.015714172 -0.0026399146 9.219563e-39
0.012390975 0.01113705 -0.0015694692 9.219563e-39
0.012242162 -0.004909608 -0.0024774687 9.219563e-39
0.012321603 0.015090936 -0.001992747 9.219563e-39
0.01227067 0.015416812 -0.0023035216 9.219563e-39
0.012220324 0.0044344366 -0.0026107086 9.219563e-39
0.012208609 0.013994783 -0.0026821927 9.219563e-39
0.012227196 -0.011835937 -0.0025687777 9.219563e-39
0.012273191 -0.00034639015 -0.0022881418 9.219563e-39
0.012247177 0.011796469 -0.0024468645 9.219563e-39
0.012263062 0.0056842477 -0.0023499411 9.219563e-39
0.012220402 -0.0042783334 -0.0026102348 9.219563e-39
0.012334427 0.0039121662 -0.0019145051 9.219563e-39
0.012356274 0.0065831956 -0.001781204 9.219563e-39
0.012376575 0.014828197 -0.0016573357 9.219563e-39
0.012219852 -0.011056867 -0.0026135943 9.219563e-39
0.012397026 0.01207715 -0.0015325501 9.219563e-39
0.012264037 0.014065541 -0.0023439946 9.219563e-39
0.012301404 -0.00063272752 -0.002115998 9.219563e-39
0.012352052 0.013434899 -0.0018069604 9.219563e-39
0.012286047 0.013475671 -0.0022097002 9.219563e-39
0.012258776 0.011347958 -0.0023760914 9.219563e-39
0.012339178 0.010983409 -0.0018855118 9.219563e-39
0.012361493 0.0073959325 -0.0017493595 9.219563e-39
0.012251171 0.00036910395 -0.002422492 9.219563e-39
0.012252261 0.005125246 -0.0024158456 9.219563e-39
0.01225285 0.0061265328 -0.0024122489 9.219563e-39
0.012310768 0.0014451903 -0.0020588581 9.219563e-39
0.012250156 0.015110861 -0.0024286876 9.219563e-39
0.012290164 0.0078962278 -0.0021845805 9.219563e-39
0.012322716 0.0095660146 -0.0019859546 9.219563e-39
0.012306308 0.0067944741 -0.0020860736 9.219563e-39
0.01231852 0.012650546 -0.0020115611 9.219563e-39
0.012227295 -0.00082062127 -0.0025681758 9.219563e-39
0.012348551 0.011277853 -0.0018283216 9.219563e-39
0.012290694 0.0024055492 -0.0021813435 9.219563e-39
0.012362031 0.012803518 -0.0017460741 9.219563e-39
0.012238863 0.0087340288 -0.0024975953 9.219563e-39
0.012381832 0.010281624 -0.0016252599 9.219563e-39
0.012249953 -0.0028753472 -0.0024299251 9.219563e-39
0.012290357 0.0059384322 -0.0021833994 9.219563e-39
0.012388153 0.010743525 -0.0015866905 9.219563e-39
0.012215092 0.013080325 -0.0026426346 9.219563e-39
0.012253438 -0.0036051811 -0.0024086619 9.219563e-39
0.012307039 0.015743386 -0.0020816119 9.219563e-39
0.01235305 0.013735697 -0.001800874 9.219563e-39
0.012330041 0.014544548 -0.0019412619 9.219563e-39
0.012325997 0.011758818 -0.0019659444 9.219563e-39
0.012243686 -0.0091563677 -0.0024681666 9.219563e-39
0.012262398 0.013732384 -0.0023539909 9.219563e-39
0.012217275 -0.0073666512 -0.0026293183 9.219563e-39
0.01230312 0.0062776608 -0.0021055306 9.219563e-39
0.012214326 0.009368483 -0.0026473077 9.219563e-39
0.01224995 -0.0069047045 -0.0024299426 9.219563e-39
0.012275556 0.014784303 -0.0022737072 9.219563e-39
0.012248777 -0.0039912621 -0.0024371035 9.219563e-39
0.012315781 0.0075267544 -0.002028276 9.219563e-39
0.012383084 0.011711031 -0.0016176221 9.219563e-39
0.012209347 0.010325305 -0.0026776916 9.219563e-39
0.012316736 0.0084742876 -0.0020224438 9.219563e-39
0.012211093 -0.0038092008 -0.0026670385 9.219563e-39
0.012287618 0.012389956 -0.0022001169 9.219563e-39
0.012340017 0.0078131659 -0.0018803972 9.219563e-39
0.012240205 -0.0054542604 -0.0024894034 9.219563e-39
0.012353717 0.009022546 -0.0017968038 9.219563e-39
0.012247673 0.0032569955 -0.0024438405 9.219563e-39
0.012283629 0.008842947 -0.0022244514 9.219563e-39
0.012300529 0.0030851138 -0.0021213351 9.219563e-39
0.012263826 8.7157357e-05 -0.0023452812 9.219563e-39
0.012245119 0.00073019305 -0.0024594232 9.219563e-39
0.012320085 0.0047812811 -0.0020020122 9.219563e-39
0.01222701 0.0083971871 -0.0025699148 9.219563e-39
0.012268998 0.008242812 -0.002313725 9.219563e-39
0.012252815 0.0039910069 -0.0024124663 9.219563e-39
0.01231419 0.0026890009 -0.0020379773 9.219563e-39
0.012235934 -0.002471122 -0.002515466 9.219563e-39
0.01223558 -0.0086599104 -0.0025176234 9.219563e-39
0.012309574 0.0055648223 -0.0020661484 9.219563e-39
0.012312544 0.00115268 -0.002048027 9.219563e-39
0.012209146 0.0074928487 -0.0026789126 9.219563e-39
0.012266823 -0.0012053192 -0.0023269937 9.219563e-39
0.012232712 0.0018939031 -0.0025351208 9.219563e-39
0.012295365 0.010060985 -0.0021528411 9.219563e-39
0.012337854 0.014198313 -0.0018935913 9.219563e-39
0.012356354 0.013120084 -0.0017807172 9.219563e-39
0.012303708 0.0051973467 -0.0021019364 9.219563e-39
0.012208495 -0.013151805 -0.0026828831 9.219563e-39
0.012298373 0.0020727767 -0.002134491 9.219563e-39
0.012278953 0.0065176017 -0.0022529855 9.219563e-39
0.012261238 0.0013065308 -0.0023610697 9.219563e-39
0.012210703 -0.0014407269 -0.0026694136 9.219563e-39
0.01222089 -0.0033690156 -0.0026072587 9.219563e-39
0.012309562 0.0034220717 -0.0020662148 9.219563e-39
0.012335709 0.0098468848 -0.0019066795 9.219563e-39
0.012263977 -0.0044729775 -0.0023443575 9.219563e-39
0.012262146 0.0035491639 -0.0023555339 9.219563e-39
0.012231123 0.0068164081 -0.002544824 9.219563e-39
0.012215865 -0.0079779094 -0.0026379179 9.219563e-39
0.012278737 0.0070892363 -0.0022543001 9.219563e-39
0.012300759 0.012041408 -0.0021199337 9.219563e-39
0.012232136 -0.0058999551 -0.0025386382 9.219563e-39
0.012242364 0.0079778442 -0.002476234 9.219563e-39
0.012229472 -0.012282846 -0.0025548907 9.219563e-39
0.012239262 0.014484602 -0.002495155 9.219563e-39
0.012209333 0.0028023694 -0.0026777687 9.219563e-39
0.012291737 -0.0026684422 -0.0021749828 9.219563e-39
0.012334523 0.0071051372 -0.0019139203 9.219563e-39
0.012247834 0.0073031038 -0.0024428554 9.219563e-39
0.012218422 0.001015185 -0.0026223152 9.219563e-39
0.012210133 0.00547165 -0.0026728907 9.219563e-39
0.012380352 0.015950171 -0.0016342876 9.219563e-39
0.012366216 0.012393456 -0.0017205423 9.219563e-39
0.012211175 0.012054414 -0.0026665356 9.219563e-39
0.012254959 0.012854385 -0.0023993859 9.219563e-39
0.012235519 -0.0082455399 -0.0025179952 9.219563e-39
0.012263081 0.013186503 -0.0023498246 9.219563e-39
0.012359556 0.015557963 -0.0017611788 9.219563e-39
0.012387043 0.014392323 -0.0015934664 9.219563e-39
0.012234028 0.0096557075 -0.0025270924 9.219563e-39
0.012228292 -0.0064351656 -0.0025620901 9.219563e-39
0.012291252 0.01436625 -0.0021779421 9.219563e-39
0.012413138 0.01509808 -0.0014342453 9.219563e-39
0.012329661 0.010317878 -0.0019435795 9.219563e-39
0.012233151 0.0022839571 -0.002532447 9.219563e-39
0.012338977 0.010611331 -0.0018867409 9.219563e-39
0.012265734 -0.0072393692 -0.0023336385 9.219563e-39
0.012289004 0.010731051 -0.0021916504 9.219563e-39
0.012344562 0.0082260985 -0.0018526686 9.219563e-39
0.012242814 -0.0017934238 -0.0024734901 9.219563e-39
0.012243655 0.010014672 -0.0024683552 9.219563e-39
0.01220115 0.010977158 -0.0027110784 9.219563e-39
0.012171643 0.0014594807 -0.0028173511 9.219563e-39
0.011954937 -0.011759067 -0.0035978414 9.219563e-39
0.012084031 -0.0052177948 -0.0031328932 9.219563e-39
0.012202113 -0.0046337186 -0.0027076125 9.219563e-39
0.011965306 -0.013800781 -0.0035604993 9.219563e-39
0.01205004 -0.0032319857 -0.0032553193 9.219563e-39
0.012177773 -0.015599738 -0.0027952748 9.219563e-39
0.012144004 0.001040653 -0.0029168974 9.219563e-39
0.012114652 -0.015433311 -0.0030226114 9.219563e-39
0.012168439 -0.014916902 -0.0028288916 9.219563e-39
0.012124438 -0.0086274482 -0.0029873666 9.219563e-39
0.012157247 0.0095897773 -0.0028691997 9.219563e-39
0.01189531 -0.01300573 -0.003812595 9.219563e-39
0.012117295 0.0048595523 -0.003013094 9.219563e-39
0.01206323 -0.014637861 -0.0032078121 9.219563e-39
0.012123068 -0.0089170393 -0.0029922992 9.219563e-39
0.011964144 -0.012690963 -0.0035646816 9.219563e-39
0.012132682 0.0072879381 -0.002957673 9.219563e-39
0.012037434 -0.0086245928 -0.0033007222 9.219563e-39
0.01215853 -0.012260292 -0.0028645811 9.219563e-39
0.012165389 0.0064214356 -0.0028398754 9.219563e-39
0.012035385 -0.015385805 -0.0033081011 9.219563e-39
0.012147587 -0.014464428 -0.0029039928 9.219563e-39
0.012098415 0.0019268205 -0.0030810928 9.219563e-39
0.012007527 -0.0037020908 -0.0034084332 9.219563e-39
0.012090166 -0.0081509845 -0.0031108004 9.219563e-39
0.012068306 -0.010222621 -0.0031895312 9.219563e-39
0.012024572 -0.0039872327 -0.0033470453 9.219563e-39
0.012170684 0.0035476417 -0.002820808 9.219563e-39
0.012161711 0.0052572596 -0.0028531216 9.219563e-39
0.012195814 0.00386058 -0.0027302958 9.219563e-39
0.012163808 0.0069115073 -0.0028455709 9.219563e-39
0.011987426 -0.010249552 -0.0034808286 9.219563e-39
0.012147149 -0.0041157752 -0.0029055697 9.219563e-39
0.011940881 -0.012339165 -0.0036484685 9.219563e-39
0.012173044 0.0020965061 -0.0028123092 9.219563e-39
0.011994633 -0.0073652593 -0.0034548731 9.219563e-39
0.012172484 -0.014087685 -0.0028143243 9.219563e-39
0.012053612 -0.015735112 -0.0032424545 9.219563e-39
0.012024906 -0.011582536 -0.0033458443 9.219563e-39
0.012130794 -0.011648362 -0.0029644745 9.219563e-39
0.011917184 -0.014029424 -0.0037338135 9.219563e-39
0.012063253 0.00082631648 -0.0032077325 9.219563e-39
0.012186412 -0.0051293671 -0.0027641589 9.219563e-39
0.012087394 -0.0025262665 -0.0031207828 9.219563e-39
0.011958228 -0.0095869424 -0.0035859884 9.219563e-39
0.012003949 -0.0047955676 -0.0034213217 9.219563e-39
0.012015888 -0.014242417 -0.0033783235 9.219563e-39
0.012156763 -0.011256342 -0.0028709425 9.219563e-39
0.012150749 0.0030403961 -0.0028926046 9.219563e-39
0.012205791 0.015320415 -0.0026943656 9.219563e-39
0.012118075 0.0045413664 -0.0030102825 9.219563e-39
0.012073835 0.0027963538 -0.0031696176 9.219563e-39
0.011991142 -0.01095775 -0.0034674453 9.219563e-39
0.012140089 -0.01259026 -0.0029309986 9.219563e-39
0.012169966 -0.0030907623 -0.0028233896 9.219563e-39
0.012173057 -0.0097125443 -0.0028122601 9.219563e-39
0.012167688 -0.0077157822 -0.0028315969 9.219563e-39
0.012176027 0.011478358 -0.0028015627 9.219563e-39
0.011974672 -0.0099291084 -0.0035267638 9.219563e-39
0.012031944 -0.0028611494 -0.0033204902 9.219563e-39
0.011940796 -0.013265493 -0.0036487719 9.219563e-39
0.012005831 -0.0089549711 -0.0034145426 9.219563e-39
0.012160834 -0.002724651 -0.0028562818 9.219563e-39
0.01211072 -0.0038250354 -0.0030367724 9.219563e-39
0.011943096 -0.015505468 -0.0036404897 9.219563e-39
0.011901366 -0.01494743 -0.0037907856 9.219563e-39
0.012094395 -0.0048411647 -0.0030955682 9.219563e-39
0.012164815 -0.00094391935 -0.0028419427 9.219563e-39
0.011960746 -0.014457781 -0.0035769215 9.219563e-39
0.012175451 -0.002431121 -0.0028036365 9.219563e-39
0.012189423 0.012639051 -0.0027533148 9.219563e-39
0.012085181 0.0034781357 -0.0031287547 9.219563e-39
0.012173052 0.0058520259 -0.0028122775 9.219563e-39
0.012207001 0.0049581439 -0.0026900072 9.219563e-39
0.012129298 0.00012179739 -0.0029698601 9.219563e-39
0.012029937 -0.013474142 -0.0033277238 9.219563e-39
0.012199171 -0.0093828784 -0.0027182084 9.219563e-39
0.012049098 -0.010519248 -0.0032587142 9.219563e-39
0.01214524 -0.013393788 -0.0029124462 9.219563e-39
0.012066744 -0.0016529231 -0.0031951547 9.219563e-39
0.012151837 -0.0057798759 -0.0028886856 9.219563e-39
0.012181428 -0.0060764509 -0.002782108 9.219563e-39
0.012020418 -0.0092335278 -0.0033620053 9.219563e-39
0.01211875 -0.0020902522 -0.0030078499 9.219563e-39
0.012082835 -0.0068552927 -0.003137206 9.219563e-39
0.011972213 -0.010662375 -0.0035356206 9.219563e-39
0.012092248 -0.010820265 -0.0031033042 9.219563e-39
0.011962785 -0.0070539815 -0.0035695743 9.219563e-39
0.012028246 -0.0077058659 -0.0033338105 9.219563e-39
0.012081532 -0.0056035155 -0.0031418959 9.219563e-39
0.01206918 -0.000568052 -0.0031863844 9.219563e-39
0.012078079 0.0041762907 -0.0031543325 9.219563e-39
0.012189945 -0.015894968 -0.0027514331 9.219563e-39
0.012118943 0.007619285 -0.0030071561 9.219563e-39
0.01202801 -0.014943406 -0.0033346643 9.219563e-39
0.012000241 -0.0045047347 -0.0034346732 9.219563e-39
0.012051801 -0.00087231048 -0.0032489751 9.219563e-39
0.012049811 -0.01390997 -0.003256144 9.219563e-39
0.012197328 0.0061468231 -0.002724845 9.219563e-39
0.012104613 -0.0099431453 -0.0030587683 9.219563e-39
0.01211964 -0.013020935 -0.003004649 9.219563e-39
0.012059459 -0.011953739 -0.0032213931 9.219563e-39
0.012099915 -0.013655599 -0.0030756879 9.219563e-39
0.011950066 -0.015187411 -0.0036153847 9.219563e-39
0.012084129 -0.0095469141 -0.0031325421 9.219563e-39
0.012183961 0.0077915601 -0.0027729881 9.219563e-39
0.012137352 -0.0033521624 -0.0029408527 9.219563e-39
0.011978019 -0.0063061644 -0.0035147106 9.219563e-39
0.012094334 -0.0060801953 -0.0030957896 9.219563e-39
0.012168102 -0.010552233 -0.0028301042 9.219563e-39
0.012148705 -0.0070488476 -0.0028999646 9.219563e-39
0.012102448 0.00042779764 -0.0030665635 9.219563e-39
0.012191515 -7.5662065e-05 -0.0027457802 9.219563e-39
0.012173008 -0.00038809638 -0.0028124359 9.219563e-39
0.012201805 0.0089794407 -0.00270872 9.219563e-39
0.012010835 -0.0080264257 -0.0033965209 9.219563e-39
0.01199224 -0.013005528 -0.0034634892 9.219563e-39
0.012030579 -0.00017244108 -0.0033254074 9.219563e-39
0.012090713 -0.0012986822 -0.0031088323 9.219563e-39
0.012076467 -0.012318465 -0.0031601379 9.219563e-39
0.012100351 -0.007406428 -0.0030741179 9.219563e-39
0.012050128 -0.011233881 -0.0032550024 9.219563e-39
0.012068842 -0.0042861099 -0.0031876026 9.219563e-39
0.012206754 -0.015165683 -0.0026908969 9.219563e-39
0.011885918 -0.015710933 -0.0038464218 9.219563e-39
0.012123953 -0.0064550568 -0.0029891154 9.219563e-39
0.011935476 -0.0085043088 -0.0036679313 9.219563e-39
0.012184827 0.00041834294 -0.0027698707 9.219563e-39
0.012057398 0.002225559 -0.003228815 9.219563e-39
0.011875325 -0.011252303 -0.0038845746 9.219563e-39
0.011918762 0.0023415459 -0.0037281322 9.219563e-39
0.01188215 0.0080768364 -0.0038599956 9.219563e-39
0.011934461 -0.0034827534 -0.00367159 9.219563e-39
0.012065667 0.01335673 -0.0031990381 9.219563e-39
0.011918828 0.0042869328 -0.003727894 9.219563e-39
0.012009053 0.010744448 -0.0034029372 9.219563e-39
0.011853997 0.011377321 -0.0039613885 9.219563e-39
0.011922274 0.010761075 -0.0037154816 9.219563e-39
0.011868157 -0.0015346634 -0.0039103897 9.219563e-39
0.012003964 0.0079698628 -0.003421267 9.219563e-39
0.011990049 0.0027576743 -0.0034713827 9.219563e-39
0.011940215 0.012922217 -0.003650866 9.219563e-39
0.011897531 -0.0038067817 -0.003804594 9.219563e-39
0.011954014 0.0019633991 -0.0036011648 9.219563e-39
0.011972228 0.011998632 -0.0035355673 9.219563e-39
0.011978698 0.0093314536 -0.0035122633 9.219563e-39
0.011850758 0.0068529937 -0.0039730566 9.219563e-39
0.011887762 -0.011566513 -0.0038397808 9.219563e-39
0.012102667 0.012721216 -0.003065777 9.219563e-39
0.011932815 -0.0075493366 -0.0036775151 9.219563e-39
0.011966255 -0.0014548493 -0.0035570804 9.219563e-39
0.011846479 -0.009240889 -0.0039884672 9.219563e-39
0.011889549 0.014416266 -0.0038333442 9.219563e-39
0.012089904 0.0093471669 -0.003111742 9.219563e-39
0.011920615 0.0035494997 -0.0037214551 9.219563e-39
0.012057552 0.012000184 -0.0032282614 9.219563e-39
0.011858752 0.0010692771 -0.0039442619 9.219563e-39
0.011877474 -0.011864017 -0.0038768339 9.219563e-39
0.011971001 0.011087249 -0.0035399874 9.219563e-39
0.0120353 0.012563442 -0.0033084047 9.219563e-39
0.01188076 -0.0070740241 -0.0038649992 9.219563e-39
0.0119647 0.013569359 -0.0035626795 9.219563e-39
0.011854449 0.012979561 -0.0039597605 9.219563e-39
0.011916736 0.014105032 -0.003735428 9.219563e-39
0.012115522 0.0085258251 -0.0030194758 9.219563e-39
0.012167684 0.013343068 -0.0028316125 9.219563e-39
0.011906781 0.010443812 -0.0037712795 9.219563e-39
0.011912482 0.0096008582 -0.0037507496 9.219563e-39
0.011870405 0.0013745036 -0.0039022958 9.219563e-39
0.012048543 0.014250211 -0.00326071 9.219563e-39
0.011847328 0.0051682349 -0.0039854054 9.219563e-39
0.011863462 -0.0097792316 -0.0039273002 9.219563e-39
0.011849753 0.013933328 -0.0039766761 9.219563e-39
0.012091476 0.014760748 -0.0031060793 9.219563e-39
0.012132913 0.013953768 -0.0029568437 9.219563e-39
0.011848275 -0.015411293 -0.0039819987 9.219563e-39
0.011915646 -0.00020749305 -0.0037393526 9.219563e-39
0.012051562 0.0065287026 -0.0032498373 9.219563e-39
0.011902013 0.0090498822 -0.0037884542 9.219563e-39
0.011920487 0.0070736613 -0.0037219191 9.219563e-39
0.012078294 0.0054857596 -0.0031535616 9.219563e-39
0.011957312 -0.0058794604 -0.0035892886 9.219563e-39
0.011908682 -0.010426746 -0.0037644359 9.219563e-39
0.011892019 -0.0088261934 -0.0038244484 9.219563e-39
0.011892734 -0.0064533902 -0.0038218733 9.219563e-39
0.012046201 0.0057520317 -0.0032691443 9.219563e-39
0.011846965 -0.0031091718 -0.0039867135 9.219563e-39
0.012008172 0.0083349291 -0.0034061116 9.219563e-39
0.01190426 0.00017966994 -0.0037803608 9.219563e-39
0.012036603 0.0062099425 -0.0033037148 9.219563e-39
0.011961743 0.0051305206 -0.0035733297 9.219563e-39
0.012125289 0.013086353 -0.0029843003 9.219563e-39
0.012056345 0.0070221345 -0.0032326102 9.219563e-39
0.012121185 0.0090373764 -0.0029990815 9.219563e-39
0.011879312 0.012225245 -0.0038702148 9.219563e-39
0.011924661 -0.0079211313 -0.0037068841 9.219563e-39
0.012037058 0.0076795723 -0.0033020745 9.219563e-39
0.011891491 0.0032550129 -0.0038263521 9.219563e-39
0.011988934 0.013139751 -0.0034753974 9.219563e-39
0.011888723 -0.0046665994 -0.0038363195 9.219563e-39
0.011951683 0.0011129034 -0.0036095611 9.219563e-39
0.011873307 -0.012607178 -0.0038918438 9.219563e-39
0.01189821 0.013249444 -0.0038021505 9.219563e-39
0.011943338 -0.0054517994 -0.0036396203 9.219563e-39
0.011996834 0.003679781 -0.0034469469 9.219563e-39
0.011880145 0.014905774 -0.0038672113 9.219563e-39
0.01215422 0.015857236 -0.0028801051 9.219563e-39
0.01201661 0.0045909337 -0.0033757191 9.219563e-39
0.012177055 0.014941609 -0.0027978611 9.219563e-39
0.012029933 0.014562646 -0.0033277373 9.219563e-39
0.011950213 0.006178394 -0.0036148555 9.219563e-39
0.012047915 0.010045934 -0.0032629718 9.219563e-39
0.012091197 0.0081882691 -0.003107087 9.219563e-39
0.012136497 0.012424326 -0.0029439351 9.219563e-39
0.011935811 -0.0051046014 -0.0036667266 9.219563e-39
0.011919061 0.0029314512 -0.0037270561 9.219563e-39
0.011966756 0.0064875428 -0.0035552757 9.219563e-39
0.012055957 0.010451526 -0.0032340095 9.219563e-39
0.011969105 0.014878212 -0.0035468137 9.219563e-39
0.012030146 0.011518778 -0.0033269678 9.219563e-39
0.011977553 0.0032420126 -0.0035163879 9.219563e-39
0.011983669 0.0040674023 -0.0034943605 9.219563e-39
0.01190025 -0.0012456968 -0.0037948058 9.219563e-39
0.011919064 0.00082626328 -0.003727044 9.219563e-39
0.011924092 0.0055677262 -0.0037089346 9.219563e-39
0.011998147 -0.0018678327 -0.0034422188 9.219563e-39
0.012032681 0.013771641 -0.0033178381 9.219563e-39
0.011902611 0.0048785475 -0.0037863026 9.219563e-39
0.011847166 -0.0052909087 -0.0039859903 9.219563e-39
0.012015546 0.015178883 -0.0033795538 9.219563e-39
0.012133009 0.014390723 -0.0029564973 9.219563e-39
0.011885694 0.015787387 -0.0038472284 9.219563e-39
0.01198444 -0.0011258468 -0.0034915854 9.219563e-39
0.011877025 0.004541731 -0.003878453 9.219563e-39
0.012065342 0.0096515864 -0.0032002067 9.219563e-39
0.011965494 0.0058315322 -0.0035598215 9.219563e-39
0.012024607 0.0013072171 -0.0033469193 9.219563e-39
0.011967434 -0.00051041128 -0.003552835 9.219563e-39
0.011959034 0.012292332 -0.0035830862 9.219563e-39
0.011922455 0.0038866817 -0.0037148276 9.219563e-39
0.011860884 0.0027350993 -0.0039365869 9.219563e-39
0.011868225 0.0065499158 -0.0039101434 9.219563e-39
0.011938379 -0.0029574356 -0.0036574765 9.219563e-39
0.011918482 0.0084751938 -0.0037291388 9.219563e-39
0.011997265 0.0088151367 -0.0034453957 9.219563e-39
0.012012205 0.0073461244 -0.0033915853 9.219563e-39
0.011920718 0.012589229 -0.0037210872 9.219563e-39
0.011903549 -0.00243265 -0.0037829222 9.219563e-39
0.011906093 -0.0041679908 -0.0037737589 9.219563e-39
0.012111014 0.011655202 -0.003035716 9.219563e-39
0.011895137 -0.0020463695 -0.003813219 9.219563e-39
0.011973493 -0.0021899813 -0.0035310106 9.219563e-39
0.012127531 0.011152674 -0.0029762273 9.219563e-39
0.011894186 0.015305835 -0.0038166451 9.219563e-39
0.01189837 -0.0067906505 -0.0038015735 9.219563e-39
0.011909961 0.0075323549 -0.0037598279 9.219563e-39
0.012066663 0.0038686723 -0.0031954495 9.219563e-39
0.011920894 0.00051727315 -0.0037204532 9.219563e-39
0.011990638 0.015507442 -0.0034692595 9.219563e-39
0.011976993 3.0371903e-05 -0.0035184075 9.219563e-39
0.011862302 -0.013687 -0.0039314753 9.219563e-39
0.012114249 0.015371344 -0.0030240638 9.219563e-39
0.011942525 0.01159491 -0.0036425448 9.219563e-39
0.012029416 0.0049980204 -0.0033295967 9.219563e-39
0.011738647 0.0056499955 -0.0042599388 9.219563e-39
0.011605683 6.1773746e-05 -0.0045936336 9.219563e-39
0.011771951 -0.0065211179 -0.0041763554 9.219563e-39
0.011755645 -0.013476619 -0.0042172787 9.219563e-39
0.011843881 0.0055294349 -0.0039958376 9.219563e-39
0.011545013 -0.0077826683 -0.0047458941 9.219563e-39
0.011602255 -0.0051924028 -0.0046022362 9.219563e-39
0.011506403 -0.0096730283 -0.0048427922 9.219563e-39
0.011507767 -0.011429961 -0.0048393668 9.219563e-39
0.011784611 0.0075461552 -0.004144582 9.219563e-39
0.011698733 0.0044199475 -0.0043601091 9.219563e-39
0.011505464 -0.0099877464 -0.004845148 9.219563e-39
0.011510689 -0.0058672149 -0.0048320354 9.219563e-39
0.011768389 0.0081715472 -0.0041852947 9.219563e-39
0.011620848 -0.01050615 -0.0045555718 9.219563e-39
0.011626824 -0.0058504869 -0.0045405761 9.219563e-39
0.011803118 0.010947445 -0.0040981378 9.219563e-39
0.011659064 -0.0096380757 -0.0044596638 9.219563e-39
0.011452798 -0.0091638025 -0.0049773217 9.219563e-39
0.01143043 -0.011210226 -0.0050334567 9.219563e-39
0.011592085 -0.011003756 -0.0046277582 9.219563e-39
0.011823852 -0.014785568 -0.0040461035 9.219563e-39
0.011748926 -0.0080980426 -0.0042341421 9.219563e-39
0.011760528 -0.0047746813 -0.0042050234 9.219563e-39
0.011747917 -0.013896037 -0.004236673 9.219563e-39
0.011826558 -0.010779895 -0.0040393113 9.219563e-39
0.011773122 -0.0068562292 -0.0041734176 9.219563e-39
0.01183484 0.0058520618 -0.0040185251 9.219563e-39
0.011607355 -0.014404929 -0.0045894361 9.219563e-39
0.011532656 -0.014002796 -0.0047769058 9.219563e-39
0.011678447 -0.0089360783 -0.0044110199 9.219563e-39
0.011814108 0.0086890692 -0.0040705558 9.219563e-39
0.011726614 0.0034600848 -0.0042901356 9.219563e-39
0.01175044 -0.0051433644 -0.0042303414 9.219563e-39
0.011795198 0.0030319318 -0.0041180146 9.219563e-39
0.011709586 -0.001707615 -0.0043328721 9.219563e-39
0.011466942 -0.012721376 -0.0049418253 9.219563e-39
0.011585051 -0.006113661 -0.0046454114 9.219563e-39
0.011643074 -0.0035929314 -0.0044997949 9.219563e-39
0.011699348 -0.0020133464 -0.0043585654 9.219563e-39
0.011558903 -0.0043414338 -0.0047110324 9.219563e-39
0.011734871 -0.0041102222 -0.0042694132 9.219563e-39
0.011591682 -0.01269322 -0.0046287701 9.219563e-39
0.011789749 -0.0037273131 -0.0041316892 9.219563e-39
0.011496135 -0.014381751 -0.0048685595 9.219563e-39
0.011834147 -0.00078283501 -0.0040202644 9.219563e-39
0.011735038 -0.0029055479 -0.0042689941 9.219563e-39
0.011818676 -0.0074373856 -0.0040590926 9.219563e-39
0.011652864 -0.010126702 -0.0044752243 9.219563e-39
0.011640904 -0.011775808 -0.0045052376 9.219563e-39
0.011767293 0.0095463926 -0.0041880445 9.219563e-39
0.011715599 -0.014234626 -0.0043177786 9.219563e-39
0.011791917 0.00251871 -0.0041262498 9.219563e-39
0.011730863 0.0010713397 -0.0042794743 9.219563e-39
0.011722438 -0.0031980472 -0.0043006176 9.219563e-39
0.011831461 -0.005788519 -0.0040270081 9.219563e-39
0.011679159 -0.014717346 -0.0044092308 9.219563e-39
0.011710096 -0.01071464 -0.0043315911 9.219563e-39
0.011633535 -0.0039625755 -0.0045237322 9.219563e-39
0.011744894 0.0070319213 -0.0042442605 9.219563e-39
0.011529668 -0.0088513568 -0.0047844029 9.219563e-39
0.011547494 -0.0083412761 -0.0047396678 9.219563e-39
0.011746888 -0.0086742239 -0.0042392546 9.219563e-39
0.011740723 -0.0056180167 -0.0042547286 9.219563e-39
0.011838209 0.0017594207 -0.0040100706 9.219563e-39
0.011664764 -0.0011314974 -0.0044453582 9.219563e-39
0.011788128 -0.012124532 -0.0041357572 9.219563e-39
0.011581727 -0.0074052969 -0.0046537537 9.219563e-39
0.011659317 -0.0093207825 -0.0044590295 9.219563e-39
0.011695993 -0.012839801 -0.0043669832 9.219563e-39
0.011751631 -0.0071360767 -0.0042273523 9.219563e-39
0.011709868 0.00049243466 -0.0043321634 9.219563e-39
0.01175445 -0.0014177847 -0.0042202766 9.219563e-39
0.01175999 0.0092145782 -0.0042063738 9.219563e-39
0.011581914 -0.0068299449 -0.0046532839 9.219563e-39
0.011499352 -0.011897822 -0.0048604864 9.219563e-39
0.011816336 0.0099687269 -0.0040649646 9.219563e-39
0.011797395 -0.0095640011 -0.0041125012 9.219563e-39
0.011400304 -0.013553513 -0.0051090647 9.219563e-39
0.011689517 -0.0045152218 -0.0043832371 9.219563e-39
0.011828861 -0.0084660156 -0.0040335297 9.219563e-39
0.011435346 -0.012309059 -0.00502112 9.219563e-39
0.011735534 -0.015025657 -0.0042677498 9.219563e-39
0.011810266 0.00028139132 -0.0040801964 9.219563e-39
0.011707161 0.0060344916 -0.0043389583 9.219563e-39
0.011659184 0.0037152779 -0.0044593643 9.219563e-39
0.011832724 0.0072311196 -0.0040238355 9.219563e-39
0.011845085 -0.0018167096 -0.003992816 9.219563e-39
0.011767982 0.0078753047 -0.0041863169 9.219563e-39
0.011774552 -0.010378112 -0.0041698292 9.219563e-39
0.011804888 -0.0044457731 -0.0040936954 9.219563e-39
0.011627998 -0.0055176257 -0.0045376276 9.219563e-39
0.011801471 0.010291241 -0.0041022715 9.219563e-39
0.011772242 -0.0026100096 -0.0041756243 9.219563e-39
0.011770764 0.0065156827 -0.0041793338 9.219563e-39
0.011631437 0.0013520359 -0.0045289979 9.219563e-39
0.011809911 -0.00010818653 -0.004081089 9.219563e-39
0.01148709 -0.0080941375 -0.0048912587 9.219563e-39
0.011655882 -0.012165313 -0.0044676499 9.219563e-39
0.011593867 -0.013653862 -0.0046232869 9.219563e-39
0.011717788 0.0017830351 -0.0043122857 9.219563e-39
0.011415706 -0.01417709 -0.0050704093 9.219563e-39
0.011769035 -0.01254043 -0.0041836742 9.219563e-39
0.01177507 0.0041309176 -0.0041685281 9.219563e-39
0.011795298 -0.0022826595 -0.0041177622 9.219563e-39
0.011669225 0.0027062306 -0.0044341632 9.219563e-39
0.011616478 -0.01504351 -0.0045665395 9.219563e-39
0.011620297 -0.01142821 -0.0045569562 9.219563e-39
0.011800641 -0.013134012 -0.004104354 9.219563e-39
0.011581044 -0.015668729 -0.0046554678 9.219563e-39
0.011440934 -0.015117816 -0.0050070966 9.219563e-39
0.011839881 0.013520394 -0.0040058764 9.219563e-39
0.011686046 0.0031634232 -0.0043919492 9.219563e-39
0.011716073 -0.0062257131 -0.0043165898 9.219563e-39
0.011726997 -0.011083758 -0.0042891754 9.219563e-39
0.011664856 -0.013251277 -0.0044451263 9.219563e-39
0.011656977 -0.0025747269 -0.0044649011 9.219563e-39
0.011570581 -0.014714285 -0.004681726 9.219563e-39
0.011590263 -0.0028674125 -0.00463233 9.219563e-39
0.011779924 -0.011821656 -0.004156346 9.219563e-39
0.011510178 -0.015407223 -0.004833316 9.219563e-39
0.011836173 0.0037972331 -0.0040151794 9.219563e-39
0.011794878 -0.0077403197 -0.0041188174 9.219563e-39
0.01178637 -0.0010889506 -0.0041401708 9.219563e-39
0.011634366 -0.0086690644 -0.0045216489 9.219563e-39
0.011696034 -0.0075866454 -0.0043668821 9.219563e-39
0.011631429 -0.0047994456 -0.0045290166 9.219563e-39
0.0118355 0.011696565 -0.0040168706 9.219563e-39
0.01172209 -0.015581758 -0.0043014917 9.219563e-39
0.011733728 0.0014375144 -0.0042722849 9.219563e-39
0.011558696 -0.0033452653 -0.004711553 9.219563e-39
0.011635749 -0.0081238607 -0.0045181778 9.219563e-39
0.011578215 -0.0064797602 -0.0046625677 9.219563e-39
0.011650477 -0.00050543714 -0.0044812146 9.219563e-39
0.011542915 -0.012981849 -0.0047511584 9.219563e-39
0.011692385 -0.00085459097 -0.0043760394 9.219563e-39
0.011468698 -0.014822817 -0.0049374159 9.219563e-39
0.011562441 -0.0016263915 -0.0047021555 9.219563e-39
0.011770451 0.014461683 -0.0041801212 9.219563e-39
0.011676963 0.015536057 -0.0044147419 9.219563e-39
0.011371605 0.010596218 -0.0051810886 9.219563e-39
0.011434722 0.0027542615 -0.005022686 9.219563e-39
0.011400457 0.002439833 -0.0051086773 9.219563e-39
0.01151718 0.013536609 -0.0048157428 9.219563e-39
0.011646535 0.0094750663 -0.0044911061 9.219563e-39
0.011427878 0.01239852 -0.005039861 9.219563e-39
0.011573424 -0.00083917449 -0.0046745916 9.219563e-39
0.011454826 0.015019516 -0.0049722311 9.219563e-39
0.011361968 0.014057377 -0.005205275 9.219563e-39
0.011365484 -0.0073280064 -0.0051964479 9.219563e-39
0.011542379 0.011213539 -0.0047525028 9.219563e-39
0.011465619 0.0068329028 -0.0049451436 9.219563e-39
0.011578584 0.0020102554 -0.004661642 9.219563e-39
0.011500928 0.011828904 -0.0048565324 9.219563e-39
0.011623376 0.0069016013 -0.0045492281 9.219563e-39
0.011399782 -0.0025554509 -0.0051103733 9.219563e-39
0.011476249 0.0064922185 -0.0049184673 9.219563e-39
0.011625402 0.013768821 -0.0045441459 9.219563e-39
0.011641181 0.0080965888 -0.0045045437 9.219563e-39
0.011412724 -0.0088374596 -0.0050778924 9.219563e-39
0.011689491 0.012448082 -0.0043833028 9.219563e-39
0.011682263 0.010694875 -0.0044014426 9.219563e-39
0.011638483 0.0084204329 -0.0045113154 9.219563e-39
0.011439161 0.0036238506 -0.0050115446 9.219563e-39
0.0114666 -0.0066764657 -0.0049426816 9.219563e-39
0.011458289 0.0018017231 -0.0049635405 9.219563e-39
0.011476198 0.0097077312 -0.0049185944 9.219563e-39
0.011505914 0.010649909 -0.0048440187 9.219563e-39
0.011585078 0.006054563 -0.004645342 9.219563e-39
0.011602923 0.015203546 -0.0046005575 9.219563e-39
0.011537827 0.0083146878 -0.0047639287 9.219563e-39
0.011522049 0.0011680127 -0.0048035234 9.219563e-39
0.011453597 0.00044683638 -0.0049753156 9.219563e-39
0.011624229 0.014094188 -0.004547087 9.219563e-39
0.011540409 0.007274569 -0.0047574472 9.219563e-39
0.011368144 0.0082396213 -0.0051897732 9.219563e-39
0.011670774 0.0074211624 -0.0044302754 9.219563e-39
0.011446904 -0.0055047055 -0.0049921121 9.219563e-39
0.011404672 -0.011631636 -0.0050981008 9.219563e-39
0.01171192 0.013603162 -0.0043270136 9.219563e-39
0.011777238 0.012635383 -0.0041630873 9.219563e-39
0.011360146 0.0044978634 -0.0052098455 9.219563e-39
0.011361812 -0.0093887346 -0.0052056643 9.219563e-39
0.011558682 0.0093005626 -0.0047115888 9.219563e-39
0.011404486 0.012031685 -0.0050985678 9.219563e-39
0.011548502 0.0037540195 -0.004737135 9.219563e-39
0.011359128 0.0099484008 -0.0052123996 9.219563e-39
0.01155991 -0.00019908539 -0.0047085062 9.219563e-39
0.011797316 0.015536929 -0.0041126972 9.219563e-39
0.011547701 0.015653633 -0.0047391481 9.219563e-39
0.011441653 -0.0001762046 -0.0050052912 9.219563e-39
0.011596157 0.0064719697 -0.0046175378 9.219563e-39
0.011415791 0.0057196114 -0.0050701969 9.219563e-39
0.011624762 0.013351783 -0.0045457515 9.219563e-39
0.011348243 0.0010422936 -0.0052397186 9.219563e-39
0.011708363 0.015241786 -0.0043359394 9.219563e-39
0.011379882 -0.0099763498 -0.0051603159 9.219563e-39
0.011511588 -0.0046760142 -0.0048297779 9.219563e-39
0.011670743 0.0053072125 -0.0044303536 9.219563e-39
0.011376563 6.5387045e-05 -0.0051686461 9.219563e-39
0.011705312 0.01014044 -0.0043435963 9.219563e-39
0.011509341 0.013889267 -0.004835418 9.219563e-39
0.011517903 0.0024807828 -0.0048139314 9.219563e-39
0.011653198 0.011222659 -0.0044743866 9.219563e-39
0.011454554 -0.0069936034 -0.0049729142 9.219563e-39
0.01145276 0.0013917082 -0.0049774172 9.219563e-39
0.011538548 -0.0013360578 -0.0047621168 9.219563e-39
0.011684244 0.011783401 -0.0043964684 9.219563e-39
0.011745274 0.014106164 -0.0042433068 9.219563e-39
0.011577504 0.011518036 -0.0046643531 9.219563e-39
0.011608146 0.012912804 -0.0045874501 9.219563e-39
0.011560055 0.012356981 -0.004708142 9.219563e-39
0.011639964 0.009007019 -0.0045075994 9.219563e-39
0.011454942 0.0053246724 -0.004971941 9.219563e-39
0.011399493 0.0039917915 -0.0051110992 9.219563e-39
0.011408441 0.015959052 -0.0050886418 9.219563e-39
0.011424875 -0.0029079025 -0.0050473996 9.219563e-39
0.011449316 0.00093297916 -0.0049860608 9.219563e-39
0.011347578 -0.011885346 -0.0052413871 9.219563e-39
0.011535236 0.010260212 -0.0047704312 9.219563e-39
0.011480917 0.013142264 -0.0049067512 9.219563e-39
0.011604947 0.0087120282 -0.0045954795 9.219563e-39
0.011421629 0.015356425 -0.0050555435 9.219563e-39
0.011362252 -0.003378775 -0.0052045612 9.219563e-39
0.011360615 0.0020947356 -0.0052086683 9.219563e-39
0.011591562 0.0040288735 -0.0046290695 9.219563e-39
0.011473605 0.014202514 -0.004925102 9.219563e-39
0.011407631 -0.0040286984 -0.0050906753 9.219563e-39
0.011403322 -0.0064456537 -0.0051014894 9.219563e-39
0.011381995 -0.0047751875 -0.0051550125 9.219563e-39
0.011391271 -0.0084128249 -0.0051317327 9.219563e-39
0.011466819 0.0046893535 -0.0049421336 9.219563e-39
0.011553392 0.00062175118 -0.0047248653 9.219563e-39
0.011495098 0.00014052571 -0.0048711631 9.219563e-39
0.011487013 0.0077146813 -0.0048914547 9.219563e-39
0.011436515 0.0093383593 -0.0050181872 9.219563e-39
0.011710423 0.013029925 -0.004330771 9.219563e-39
0.011417551 -0.0060607893 -0.0050657787 9.219563e-39
0.011651473 0.012052719 -0.0044787144 9.219563e-39
0.01161094 0.0076592914 -0.0045804391 9.219563e-39
0.011667961 0.014377132 -0.0044373358 9.219563e-39
0.011391384 0.0030977172 -0.0051314509 9.219563e-39
0.011409634 0.0087412987 -0.005085648 9.219563e-39
0.011449312 0.007999965 -0.0049860701 9.219563e-39
0.01175029 0.011497933 -0.0042307167 9.219563e-39
0.011421136 -0.0043299464 -0.0050567831 9.219563e-39
0.011568232 0.0049574799 -0.0046876208 9.219563e-39
0.011447285 -0.0015256346 -0.0049911565 9.219563e-39
0.011459019 -0.00093635515 -0.0049617095 9.219563e-39
0.011393156 -0.0019251007 -0.0051270025 9.219563e-39
0.011384947 0.0133185 -0.0051476033 9.219563e-39
0.011563516 0.003275601 -0.004699456 9.219563e-39
0.011426426 0.014547664 -0.0050435066 9.219563e-39
0.011793518 0.013244313 -0.0041222307 9.219563e-39
0.011434942 0.0060401987 -0.0050221342 9.219563e-39
0.011350135 0.0034195061 -0.0052349693 9.219563e-39
0.01143759 -0.0037476451 -0.0050154869 9.219563e-39
0.011528417 0.014660778 -0.0047875433 9.219563e-39
0.011526187 -0.0024858457 -0.004793141 9.219563e-39
0.011696347 0.0097841751 -0.0043660956 9.219563e-39
0.011691445 0.014689158 -0.0043783979 9.219563e-39
0.011493721 0.01283149 -0.0048746187 9.219563e-39
0.011770028 0.015955007 -0.0041811829 9.219563e-39
0.011428374 0.011577087 -0.0050386181 9.219563e-39
