# .PCD v0.7 - Point Cloud Data file format
VERSION 0.7
FIELDS x y z rgb
SIZE 4 4 4 4
TYPE F F F F
COUNT 1 1 1 1
WIDTH 893
HEIGHT 1
VIEWPOINT 0 0 0 1 0 0 0
POINTS 893
DATA ascii
-0.00087852415 0.028647827 -0.0089442478 9.219563e-39
-0.0013753289 0.030425295 -0.0088902181 9.219563e-39
-0.0013758665 -0.0019707826 -0.0088901594 9.219563e-39
-0.0014520847 0.014106486 -0.0088818707 9.219563e-39
-0.0012138973 0.013797108 -0.0089077745 9.219563e-39
-0.001235728 0.035955079 -0.0089054005 9.219563e-39
-0.0012213271 0.0074960631 -0.0089069661 9.219563e-39
-0.0013042389 -0.023191787 -0.008897949 9.219563e-39
-0.0013977785 -0.02087166 -0.0088877762 9.219563e-39
-0.00099659991 0.029037127 -0.0089314058 9.219563e-39
-0.001185375 0.030674111 -0.0089108758 9.219563e-39
-0.0013683995 -0.01751215 -0.0088909715 9.219563e-39
-0.0010493965 0.03730797 -0.0089256642 9.219563e-39
-0.001417148 -0.032291614 -0.0088856705 9.219563e-39
-0.0013240813 -0.027905753 -0.0088957911 9.219563e-39
-0.0013928234 0.0013067734 -0.0088883154 9.219563e-39
-0.0012808919 -0.0047442894 -0.0089004887 9.219563e-39
-0.00062733406 0.02999106 -0.0089715654 9.219563e-39
-0.0012991393 0.02526837 -0.0088985041 9.219563e-39
-0.0012116263 0.032423411 -0.0089080213 9.219563e-39
-0.001405173 -0.011298995 -0.0088869724 9.219563e-39
-0.00087974971 0.012359242 -0.0089441137 9.219563e-39
-0.0014312566 -0.026112566 -0.0088841356 9.219563e-39
-0.0013238528 -0.010630381 -0.0088958163 9.219563e-39
-0.00084832596 0.022528386 -0.0089475317 9.219563e-39
-0.0010586797 -0.0017685845 -0.0089246547 9.219563e-39
-0.0014019092 0.009102067 -0.0088873273 9.219563e-39
-0.0012572807 0.013233999 -0.0089030564 9.219563e-39
-0.0013027265 0.0097181387 -0.0088981139 9.219563e-39
-0.0013995435 0.010131557 -0.0088875843 9.219563e-39
-0.0012098694 0.019970024 -0.0089082122 9.219563e-39
-0.00063683192 0.028191606 -0.0089705326 9.219563e-39
-0.00087396835 0.019961942 -0.0089447433 9.219563e-39
-0.00088469725 0.022964178 -0.0089435764 9.219563e-39
-0.0010440935 0.014888871 -0.0089262407 9.219563e-39
-0.0009462203 0.0043900772 -0.0089368848 9.219563e-39
-0.0012698865 0.037666775 -0.0089016855 9.219563e-39
-0.0010342647 0.020268682 -0.0089273099 9.219563e-39
-0.001076199 0.026682068 -0.0089227492 9.219563e-39
-0.0010590375 0.036956143 -0.0089246156 9.219563e-39
-0.0014141055 -0.0035107853 -0.0088860011 9.219563e-39
-0.0010811682 0.039213568 -0.008922209 9.219563e-39
-0.001371089 0.012013433 -0.0088906791 9.219563e-39
-0.00095690315 0.011744556 -0.0089357235 9.219563e-39
-0.00083275983 0.026326975 -0.0089492248 9.219563e-39
-0.0011041519 0.027045947 -0.0089197094 9.219563e-39
-0.0012302838 0.038077686 -0.0089059919 9.219563e-39
-0.00095899351 0.025932968 -0.0089354962 9.219563e-39
-0.0010678623 0.0081539052 -0.0089236563 9.219563e-39
-0.00095351564 0.0091821905 -0.0089360923 9.219563e-39
-0.0014012129 0.015859585 -0.0088874027 9.219563e-39
-0.00099843531 0.036638744 -0.0089312065 9.219563e-39
-0.0012942448 -0.00043410275 -0.0088990359 9.219563e-39
-0.0013928327 0.029861549 -0.0088883145 9.219563e-39
-0.0013305026 -0.014329111 -0.0088950926 9.219563e-39
-0.00079025986 0.025040111 -0.0089538461 9.219563e-39
-0.00085536396 0.030813839 -0.0089467661 9.219563e-39
-0.0011052252 0.031032495 -0.0089195929 9.219563e-39
-0.00090231787 0.036033545 -0.0089416597 9.219563e-39
-0.0011184721 0.0065193777 -0.0089181522 9.219563e-39
-0.00096890418 0.0014795618 -0.0089344187 9.219563e-39
-0.0013945588 0.0052752565 -0.0088881264 9.219563e-39
-0.00051145483 0.038544316 -0.0089841681 9.219563e-39
-0.00091818295 0.0047696233 -0.008939934 9.219563e-39
-0.00082806154 0.022215428 -0.0089497352 9.219563e-39
-0.00099378137 0.021923397 -0.0089317132 9.219563e-39
-0.0011372494 0.0069064023 -0.0089161098 9.219563e-39
-0.0010539687 0.0031216105 -0.0089251669 9.219563e-39
-0.0013710693 0.019603815 -0.008890681 9.219563e-39
-0.0012758984 -0.017186921 -0.0089010317 9.219563e-39
-0.0014001965 0.0064152968 -0.0088875135 9.219563e-39
-0.00091800897 0.035659123 -0.0089399535 9.219563e-39
-0.0013981817 -0.033196647 -0.0088877324 9.219563e-39
-0.0010872114 -0.0086831413 -0.0089215515 9.219563e-39
-0.0013580386 0.01108227 -0.0088920984 9.219563e-39
-0.00065492862 0.036653455 -0.0089685647 9.219563e-39
-0.0013101898 -0.021771794 -0.0088973017 9.219563e-39
-0.0013615978 0.039324727 -0.008891711 9.219563e-39
-0.001267769 -0.020364583 -0.0089019155 9.219563e-39
-0.0012529538 -0.015550816 -0.0089035267 9.219563e-39
-0.0013494327 0.001698348 -0.0088930344 9.219563e-39
-0.0012671279 0.022356112 -0.0089019854 9.219563e-39
-0.0010864405 -0.0074427864 -0.0089216353 9.219563e-39
-0.0014125123 0.026608767 -0.0088861743 9.219563e-39
-0.00058246625 0.0353157 -0.0089764446 9.219563e-39
-0.0013824819 -0.0082798423 -0.0088894404 9.219563e-39
-0.0011523053 0.032735623 -0.0089144725 9.219563e-39
-0.0012943 0.016646439 -0.0088990303 9.219563e-39
-0.0014060084 0.032987274 -0.0088868812 9.219563e-39
-0.0011509211 -0.0022346224 -0.0089146234 9.219563e-39
-0.00093024789 0.031723615 -0.0089386227 9.219563e-39
-0.0013976598 0.016359169 -0.0088877892 9.219563e-39
-0.0013715953 -7.0132177e-05 -0.0088906242 9.219563e-39
-0.0012599572 0.018178198 -0.0089027649 9.219563e-39
-0.00081522868 0.017370056 -0.0089511313 9.219563e-39
-0.0012478506 0.015566072 -0.0089040818 9.219563e-39
-0.0010278783 0.024752468 -0.0089280047 9.219563e-39
-0.0012589042 0.023274135 -0.0089028794 9.219563e-39
-0.0010192984 -0.0037297434 -0.0089289378 9.219563e-39
-0.0015091045 0.013753963 -0.0088697597 9.219563e-39
-0.0015316108 -0.030113246 -0.008864806 9.219563e-39
-0.002015677 -0.025279399 -0.0087582543 9.219563e-39
-0.0016406957 -0.039141193 -0.0088407947 9.219563e-39
-0.0014889328 -0.0044506136 -0.0088742003 9.219563e-39
-0.0019516371 -0.038876448 -0.0087723508 9.219563e-39
-0.0018779752 -0.019476645 -0.0087885652 9.219563e-39
-0.0018033239 -0.034968149 -0.0088049965 9.219563e-39
-0.0016490812 0.022646515 -0.0088389488 9.219563e-39
-0.0015795416 0.007483148 -0.0088542551 9.219563e-39
-0.0017820835 -0.013140318 -0.0088096727 9.219563e-39
-0.00161927 0.009877814 -0.0088455109 9.219563e-39
-0.0022305013 -0.032158267 -0.0087109674 9.219563e-39
-0.0018128051 -0.0281763 -0.0088029103 9.219563e-39
-0.0018110916 -0.024829436 -0.0088032875 9.219563e-39
-0.001912703 -0.01085863 -0.0087809209 9.219563e-39
-0.0022774898 -0.02920565 -0.0087006241 9.219563e-39
-0.0020513951 -0.021425098 -0.0087503921 9.219563e-39
-0.0018841096 -0.018646892 -0.0087872148 9.219563e-39
-0.0014914983 -0.025478402 -0.008873635 9.219563e-39
-0.0018521528 -0.023676507 -0.008794249 9.219563e-39
-0.0018590726 -0.026987236 -0.0087927254 9.219563e-39
-0.0020043848 -0.018236933 -0.00876074 9.219563e-39
-0.0020731215 -0.024220912 -0.0087456098 9.219563e-39
-0.0015094661 -0.0060681612 -0.0088696806 9.219563e-39
-0.0018604253 -0.027291197 -0.0087924283 9.219563e-39
-0.001542786 0.015528037 -0.0088623464 9.219563e-39
-0.0016482332 0.010298739 -0.0088391351 9.219563e-39
-0.0015920062 -0.029803418 -0.0088515114 9.219563e-39
-0.0017123001 -0.023362512 -0.008825033 9.219563e-39
-0.0020219751 -0.028797623 -0.0087568676 9.219563e-39
-0.001949724 -0.038159609 -0.0087727718 9.219563e-39
-0.0016423615 -0.005630706 -0.0088404277 9.219563e-39
-0.0020132943 -0.031055318 -0.0087587787 9.219563e-39
-0.0018152525 0.0049736882 -0.0088023711 9.219563e-39
-0.0017756782 -0.031509299 -0.0088110827 9.219563e-39
-0.0015251226 -0.018257342 -0.0088662338 9.219563e-39
-0.0017244529 0.0028475127 -0.0088223582 9.219563e-39
-0.0014845514 0.014980834 -0.0088751642 9.219563e-39
-0.0018970465 -0.016597738 -0.0087843668 9.219563e-39
-0.0014944373 0.011368521 -0.0088729886 9.219563e-39
-0.0019709186 -0.011428123 -0.0087681059 9.219563e-39
-0.0019257517 -0.0086451117 -0.0087780487 9.219563e-39
-0.0015102269 -0.016458714 -0.0088695129 9.219563e-39
-0.0017082546 0.013154745 -0.0088259233 9.219563e-39
-0.0015603286 -0.037314136 -0.0088584842 9.219563e-39
-0.0016316889 -0.0049121799 -0.0088427765 9.219563e-39
-0.0018074951 -0.0031333603 -0.0088040791 9.219563e-39
-0.0016346632 0.021154229 -0.0088421218 9.219563e-39
-0.0021445453 -0.034250956 -0.0087298881 9.219563e-39
-0.0018111768 -0.0062568495 -0.008803268 9.219563e-39
-0.0018741651 0.0034179161 -0.0087894034 9.219563e-39
-0.0018244338 -0.027648209 -0.0088003501 9.219563e-39
-0.0020719131 -0.039401155 -0.0087458752 9.219563e-39
-0.0018184124 -0.017015472 -0.0088016754 9.219563e-39
-0.0021835559 -0.025544221 -0.0087213013 9.219563e-39
-0.0018572565 -0.029441455 -0.0087931249 9.219563e-39
-0.002115563 -0.017215988 -0.0087362677 9.219563e-39
-0.0017200717 0.00024434508 -0.0088233221 9.219563e-39
-0.0016700714 -0.023052687 -0.0088343285 9.219563e-39
-0.0015763035 -0.0085873576 -0.0088549685 9.219563e-39
-0.0016917922 -0.03357162 -0.0088295471 9.219563e-39
-0.0015405326 -0.026991688 -0.0088628419 9.219563e-39
-0.0021442287 -0.031433977 -0.008729958 9.219563e-39
-0.0014750194 0.011698437 -0.0088772625 9.219563e-39
-0.0017299469 -0.013863625 -0.0088211484 9.219563e-39
-0.0016289568 -0.021448186 -0.0088433782 9.219563e-39
-0.0016264913 0.017945435 -0.0088439211 9.219563e-39
-0.0017523974 -0.0052362639 -0.0088162068 9.219563e-39
-0.0015052219 0.00077725569 -0.0088706147 9.219563e-39
-0.0018168562 -0.021740211 -0.0088020181 9.219563e-39
-0.0017735835 0.0016775507 -0.0088115437 9.219563e-39
-0.0017047366 0.0042663338 -0.0088266982 9.219563e-39
-0.0016191074 -0.03596241 -0.0088455463 9.219563e-39
-0.0017051109 -0.0070906761 -0.0088266153 9.219563e-39
-0.0015858012 -0.032646578 -0.0088528777 9.219563e-39
-0.0020610525 -0.03593348 -0.0087482659 9.219563e-39
-0.0015965119 -0.025186315 -0.0088505195 9.219563e-39
-0.0017797033 -0.010253857 -0.0088101961 9.219563e-39
-0.001911951 -0.015875939 -0.0087810857 9.219563e-39
-0.0014901253 -0.0023852845 -0.0088739377 9.219563e-39
-0.0014728386 -0.0091261324 -0.008877743 9.219563e-39
-0.0017725729 -0.020294635 -0.0088117654 9.219563e-39
-0.002222806 -0.028036462 -0.0087126615 9.219563e-39
-0.0014848269 0.017159617 -0.0088751037 9.219563e-39
-0.001551291 -0.022398641 -0.0088604735 9.219563e-39
-0.0015656749 -0.024289332 -0.008857308 9.219563e-39
-0.001598443 -0.031971026 -0.0088500949 9.219563e-39
-0.0018293003 -0.032444287 -0.0087992791 9.219563e-39
-0.0016003543 -0.00031773568 -0.0088496739 9.219563e-39
-0.0018659701 -0.0019973323 -0.0087912073 9.219563e-39
-0.0016052515 -0.035380069 -0.0088485964 9.219563e-39
-0.0014896609 -0.015845561 -0.0088740401 9.219563e-39
-0.0018307705 -0.037480522 -0.008798955 9.219563e-39
-0.0019074739 -0.015535668 -0.008782072 9.219563e-39
-0.0018095812 -0.017832715 -0.00880362 9.219563e-39
-0.0018473497 0.00082170143 -0.0087953061 9.219563e-39
-0.0017106878 -0.039997306 -0.0088253878 9.219563e-39
-0.0015779998 -0.0080602169 -0.008854595 9.219563e-39
-0.0019269106 -0.021151241 -0.0087777935 9.219563e-39
-0.0014780805 -0.013575084 -0.0088765891 9.219563e-39
-0.0016834581 -0.01489816 -0.0088313818 9.219563e-39
-0.0019516287 -0.033712007 -0.0087723527 9.219563e-39
-0.0016141355 0.024440099 -0.0088466406 9.219563e-39
-0.0019409738 -0.035421431 -0.0087746978 9.219563e-39
-0.0017017178 -0.0094762472 -0.0088273622 9.219563e-39
-0.0015439718 -0.0026853385 -0.0088620847 9.219563e-39
-0.0017901835 -0.0075942622 -0.0088078892 9.219563e-39
-0.0020351871 -0.01457339 -0.00875396 9.219563e-39
-0.001930834 -0.034678619 -0.0087769292 9.219563e-39
-0.0019223683 -0.028492497 -0.0087787928 9.219563e-39
-0.0018296895 -0.029032623 -0.0087991934 9.219563e-39
-0.0020904762 -0.038597483 -0.0087417895 9.219563e-39
-0.002365564 -0.03929203 -0.0086812377 9.219563e-39
-0.001540478 0.032167714 -0.008862854 9.219563e-39
-0.0015386441 0.025690038 -0.0088632582 9.219563e-39
-0.0016134137 0.0067196814 -0.0088467998 9.219563e-39
-0.001809253 -0.034270793 -0.0088036917 9.219563e-39
-0.0015243329 -0.034808476 -0.0088664079 9.219563e-39
-0.0018319756 -0.03569353 -0.0087986905 9.219563e-39
-0.0021056524 -0.021753393 -0.0087384488 9.219563e-39
-0.0015575136 -0.0015106568 -0.0088591045 9.219563e-39
-0.002363791 -0.037184618 -0.0086816279 9.219563e-39
-0.0014611752 -0.011868312 -0.0088803098 9.219563e-39
-0.00202317 -0.016253602 -0.008756605 9.219563e-39
-0.0017741746 0.012848336 -0.0088114133 9.219563e-39
-0.0017781126 0.0081748012 -0.0088105462 9.219563e-39
-0.0016694122 -0.012793047 -0.0088344729 9.219563e-39
-0.0014827137 -0.012544571 -0.0088755693 9.219563e-39
-0.0015884255 -0.019232728 -0.0088523002 9.219563e-39
-0.0018428806 -0.00070967898 -0.0087962896 9.219563e-39
-0.0016804863 -0.03080062 -0.0088320356 9.219563e-39
-0.0020117892 -0.020842213 -0.0087591102 9.219563e-39
-0.0017472444 0.0085715642 -0.0088173412 9.219563e-39
-0.0015498021 0.0060708201 -0.0088608013 9.219563e-39
-0.0015357417 0.010806877 -0.0088638961 9.219563e-39
-0.001902197 -0.031886086 -0.0087832334 9.219563e-39
-0.0018013788 0.0065026921 -0.0088054249 9.219563e-39
-0.0015013533 0.030747542 -0.0088714659 9.219563e-39
-0.0019516392 -0.0081165219 -0.0087723499 9.219563e-39
-0.0020907379 -0.032892857 -0.0087417318 9.219563e-39
-0.0018187901 -0.02449757 -0.0088015925 9.219563e-39
-0.0019609598 -0.0092169596 -0.0087702982 9.219563e-39
-0.0021517251 -0.026975511 -0.0087283077 9.219563e-39
-0.001960054 -0.03068823 -0.0087704975 9.219563e-39
-0.0018034637 -0.019838326 -0.0088049658 9.219563e-39
-0.0016038271 -0.003791573 -0.0088489093 9.219563e-39
-0.0019212409 -0.037188794 -0.0087790415 9.219563e-39
-0.0016078776 -0.038080715 -0.008848018 9.219563e-39
-0.0014949597 0.028821785 -0.0088728731 9.219563e-39
-0.001979179 -0.022717938 -0.0087662879 9.219563e-39
-0.0016652225 -0.001020833 -0.0088353958 9.219563e-39
-0.0019332049 -0.029750196 -0.0087764077 9.219563e-39
-0.0022809519 -0.038963918 -0.0086998623 9.219563e-39
-0.0018344814 -0.012464432 -0.0087981382 9.219563e-39
-0.0016720771 -0.026358677 -0.0088338871 9.219563e-39
-0.0015220109 0.0022430411 -0.0088669192 9.219563e-39
-0.0014877747 0.0048958282 -0.0088744555 9.219563e-39
-0.001569392 -0.028783226 -0.0088564893 9.219563e-39
-0.001757019 -0.036859684 -0.0088151898 9.219563e-39
-0.0017175479 -0.036285184 -0.0088238781 9.219563e-39
-0.0016368179 -0.014460317 -0.0088416478 9.219563e-39
-0.0021136706 -0.025977075 -0.008736684 9.219563e-39
-0.0019576207 -0.039690878 -0.008771033 9.219563e-39
-0.0015230587 -0.0067131631 -0.0088666882 9.219563e-39
-0.0018517873 -0.030289968 -0.0087943291 9.219563e-39
-0.0017554263 0.0046033682 -0.00881554 9.219563e-39
-0.0019812158 -0.0056107338 -0.00876584 9.219563e-39
-0.0014921129 -0.015142933 -0.0088734999 9.219563e-39
-0.0018237235 0.0019951034 -0.0088005066 9.219563e-39
-0.0015503298 -0.015532234 -0.0088606859 9.219563e-39
-0.0018695878 -0.022069145 -0.0087904111 9.219563e-39
-0.0017429603 -0.011167313 -0.0088182837 9.219563e-39
-0.0015877264 0.0071167978 -0.0088524539 9.219563e-39
-0.0015622597 -0.019591186 -0.0088580595 9.219563e-39
-0.0015196522 0.0087989764 -0.008867438 9.219563e-39
-0.001846852 -0.013535294 -0.008795416 9.219563e-39
-0.0015381958 -0.039557822 -0.008863356 9.219563e-39
-0.0020952357 -0.024720218 -0.0087407418 9.219563e-39
-0.0016970407 0.014331052 -0.0088283913 9.219563e-39
-0.002136617 -0.033409387 -0.0087316334 9.219563e-39
-0.0016047898 0.0031834459 -0.0088486979 9.219563e-39
-0.0014798053 0.0081641693 -0.0088762091 9.219563e-39
-0.0019711321 -0.0041546756 -0.0087680593 9.219563e-39
-0.0021794855 -0.036909934 -0.0087221973 9.219563e-39
-0.0015097278 -0.018821061 -0.0088696228 9.219563e-39
-0.0015189733 0.0037709286 -0.0088675879 9.219563e-39
-0.0016378523 -0.026719585 -0.0088414205 9.219563e-39
-0.0014691687 0.012680537 -0.0088785505 9.219563e-39
-0.0017108972 -0.03299354 -0.0088253412 9.219563e-39
-0.0022286687 -0.038019519 -0.0087113706 9.219563e-39
-0.0016634451 -0.011517935 -0.008835787 9.219563e-39
-0.0020174554 -0.026247071 -0.0087578623 9.219563e-39
-0.0016356335 0.022230843 -0.0088419085 9.219563e-39
-0.0015860565 -0.033876564 -0.0088528218 9.219563e-39
-0.0014611557 -0.022045586 -0.0088803144 9.219563e-39
-0.0019250205 -0.022359522 -0.0087782089 9.219563e-39
-0.0020743296 -0.014191139 -0.0087453434 9.219563e-39
-0.002052526 -0.010587361 -0.0087501435 9.219563e-39
-0.0016103325 0.012357987 -0.0088474778 9.219563e-39
-0.0021202562 -0.016799118 -0.0087352348 9.219563e-39
-0.0022460138 -0.034896474 -0.0087075531 9.219563e-39
-0.001569926 0.024128439 -0.008856372 9.219563e-39
-0.0018400359 0.0023105983 -0.0087969163 9.219563e-39
-0.0014589237 -0.023990761 -0.0088808052 9.219563e-39
-0.001933162 -0.0034360595 -0.008776417 9.219563e-39
-0.0015632182 0.026916301 -0.0088578481 9.219563e-39
-0.0019248484 -0.033198278 -0.0087782471 9.219563e-39
-0.001516994 -0.0030492453 -0.0088680238 9.219563e-39
-0.0016282743 -0.017300999 -0.0088435281 9.219563e-39
-0.0017983596 -0.0097693764 -0.0088060899 9.219563e-39
-0.0017918373 -0.012074372 -0.008807525 9.219563e-39
-0.0015397 0.028334826 -0.0088630253 9.219563e-39
-0.001791611 -0.038457014 -0.0088075753 9.219563e-39
-0.0015531468 0.031101169 -0.0088600656 9.219563e-39
-0.0022642848 -0.030917525 -0.0087035308 9.219563e-39
-0.0016713775 0.0055821841 -0.0088340407 9.219563e-39
-0.0018170694 -0.01895204 -0.0088019716 9.219563e-39
-0.0015224466 0.027552135 -0.0088668233 9.219563e-39
-0.0015668367 -0.023651147 -0.0088570518 9.219563e-39
-0.0016224221 0.023130765 -0.0088448171 9.219563e-39
-0.0020818766 -0.023022523 -0.0087436819 9.219563e-39
-0.00205316 0.025371721 -0.0087500038 9.219563e-39
-0.0019881055 0.027168203 -0.0087643228 9.219563e-39
-0.002033114 -0.0027936189 -0.0087544164 9.219563e-39
-0.0023594152 -0.027215376 -0.0086825909 9.219563e-39
-0.0023357954 0.034273535 -0.0086877905 9.219563e-39
-0.001608341 0.027941627 -0.0088479165 9.219563e-39
-0.0022155209 -0.0031078418 -0.0087142652 9.219563e-39
-0.0020568869 0.013060076 -0.0087491833 9.219563e-39
-0.0020752768 0.01815078 -0.0087451348 9.219563e-39
-0.0018621401 0.032060172 -0.0087920502 9.219563e-39
-0.0020085163 0.036644787 -0.0087598301 9.219563e-39
-0.0017395281 0.037415575 -0.0088190399 9.219563e-39
-0.0020606988 0.0084545035 -0.0087483441 9.219563e-39
-0.0023243173 -0.018194512 -0.0086903172 9.219563e-39
-0.0019661942 0.025001794 -0.0087691462 9.219563e-39
-0.0017286047 0.037999105 -0.0088214437 9.219563e-39
-0.001981464 0.037715711 -0.008765785 9.219563e-39
-0.0018184875 0.0234503 -0.0088016596 9.219563e-39
-0.0021618269 -0.012041157 -0.0087260837 9.219563e-39
-0.0020731881 0.017838962 -0.0087455949 9.219563e-39
-0.0020903249 -0.00092254544 -0.008741823 9.219563e-39
-0.0021814869 -0.0083751511 -0.0087217567 9.219563e-39
-0.0024040458 0.0077102487 -0.0086727673 9.219563e-39
-0.0020056635 0.022310924 -0.0087604579 9.219563e-39
-0.0016313578 0.033401452 -0.0088428501 9.219563e-39
-0.0022156183 -0.019731674 -0.0087142438 9.219563e-39
-0.0018636377 0.030557826 -0.0087917205 9.219563e-39
-0.001870783 0.022031622 -0.0087901475 9.219563e-39
-0.0018797379 0.020371141 -0.0087881768 9.219563e-39
-0.0021726079 0.011050064 -0.0087237107 9.219563e-39
-0.002320173 0.029408615 -0.0086912289 9.219563e-39
-0.0019765513 0.019808659 -0.0087668663 9.219563e-39
-0.0019045309 0.039287731 -0.0087827193 9.219563e-39
-0.0017833173 0.015279952 -0.0088094007 9.219563e-39
-0.002184236 -0.013057445 -0.0087211514 9.219563e-39
-0.0020502936 0.027624166 -0.0087506343 9.219563e-39
-0.0023742665 0.025859995 -0.008679322 9.219563e-39
-0.001892132 0.0370728 -0.008785449 9.219563e-39
-0.0021841885 0.0066379146 -0.0087211616 9.219563e-39
-0.0019845599 0.016100241 -0.0087651033 9.219563e-39
-0.002382338 -0.017010596 -0.008677545 9.219563e-39
-0.0021637676 0.015073123 -0.0087256571 9.219563e-39
-0.0023346941 0.00026921747 -0.0086880326 9.219563e-39
-0.0015102972 0.035718676 -0.0088694971 9.219563e-39
-0.0023283805 -0.0096416743 -0.0086894222 9.219563e-39
-0.0022407172 0.019276572 -0.0087087192 9.219563e-39
-0.0018593887 0.018996837 -0.0087926565 9.219563e-39
-0.0019263151 0.012504557 -0.0087779239 9.219563e-39
-0.0022126618 0.034748644 -0.0087148938 9.219563e-39
-0.0021284411 -0.0022271895 -0.0087334327 9.219563e-39
-0.0023165897 -0.019330772 -0.0086920178 9.219563e-39
-0.0021885524 -0.018639965 -0.0087202014 9.219563e-39
-0.0022004582 0.00084690569 -0.0087175807 9.219563e-39
-0.0020109275 0.031770013 -0.0087592993 9.219563e-39
-0.0016644584 0.031703558 -0.0088355634 9.219563e-39
-0.0018290554 0.01383151 -0.0087993331 9.219563e-39
-0.0019554724 0.039701115 -0.0087715061 9.219563e-39
-0.0018110363 0.026158862 -0.0088032996 9.219563e-39
-0.0021879876 -0.017542886 -0.0087203253 9.219563e-39
-0.0021897187 -0.0039376896 -0.0087199444 9.219563e-39
-0.0020263467 0.00019121589 -0.0087559056 9.219563e-39
-0.0018703208 0.0078306962 -0.0087902499 9.219563e-39
-0.0023782188 0.026469886 -0.0086784521 9.219563e-39
-0.002369731 -0.036501952 -0.0086803203 9.219563e-39
-0.002168722 0.018811787 -0.0087245665 9.219563e-39
-0.0022108683 0.010328234 -0.0087152887 9.219563e-39
-0.0020489958 0.030112598 -0.0087509202 9.219563e-39
-0.0020646262 0.0099560041 -0.0087474799 9.219563e-39
-0.0018495743 0.011266074 -0.0087948162 9.219563e-39
-0.0020117192 -0.0048986413 -0.0087591251 9.219563e-39
-0.0023984686 -0.021599745 -0.0086739948 9.219563e-39
-0.0016709486 0.030034544 -0.0088341348 9.219563e-39
-0.0021673185 0.021458268 -0.0087248748 9.219563e-39
-0.0021497943 0.0087958835 -0.0087287324 9.219563e-39
-0.0024063447 0.022093609 -0.0086722607 9.219563e-39
-0.0023856706 0.013081624 -0.0086768121 9.219563e-39
-0.0022460956 0.021788456 -0.0087075345 9.219563e-39
-0.0023555756 -0.0089169601 -0.0086834366 9.219563e-39
-0.0023094567 0.036664661 -0.008693588 9.219563e-39
-0.001768466 0.019497486 -0.0088126697 9.219563e-39
-0.0021615804 0.014573188 -0.0087261386 9.219563e-39
-0.0022021115 -0.0060270187 -0.0087172166 9.219563e-39
-0.0018749109 0.016456293 -0.0087892395 9.219563e-39
-0.0021328472 0.03840398 -0.0087324632 9.219563e-39
-0.0019292887 0.018467192 -0.0087772701 9.219563e-39
-0.0016765562 0.023719715 -0.0088329008 9.219563e-39
-0.0023196689 -0.016229725 -0.0086913398 9.219563e-39
-0.0021388107 0.00053704286 -0.0087311501 9.219563e-39
-0.0019513998 0.028371898 -0.008772403 9.219563e-39
-0.0017387394 0.035083197 -0.0088192131 9.219563e-39
-0.0020957144 0.0016062257 -0.0087406365 9.219563e-39
-0.0021753707 0.023608502 -0.0087231025 9.219563e-39
-0.0016273397 0.02935184 -0.0088437339 9.219563e-39
-0.0023996204 -0.036101118 -0.0086737415 9.219563e-39
-0.002269862 -0.013777163 -0.0087023033 9.219563e-39
-0.0021107709 0.0025923634 -0.0087373219 9.219563e-39
-0.0016778527 0.033698373 -0.0088326158 9.219563e-39
-0.0022297087 0.037165008 -0.0087111415 9.219563e-39
-0.0019269167 0.035388645 -0.0087777916 9.219563e-39
-0.0021147598 -0.0078496858 -0.0087364446 9.219563e-39
-0.001926695 0.031468943 -0.008777841 9.219563e-39
-0.0020527348 0.017192313 -0.0087500969 9.219563e-39
-0.002346646 0.037568741 -0.0086854016 9.219563e-39
-0.0018502398 0.0090439385 -0.00879467 9.219563e-39
-0.0017436699 0.028963735 -0.0088181281 9.219563e-39
-0.0023021847 0.038657989 -0.0086951889 9.219563e-39
-0.0019596822 0.032867748 -0.0087705795 9.219563e-39
-0.0018224916 0.0095258225 -0.0088007776 9.219563e-39
-0.0019338732 0.032390535 -0.0087762605 9.219563e-39
-0.0022909758 -0.015835732 -0.008697656 9.219563e-39
-0.0016818078 0.038642734 -0.008831745 9.219563e-39
-0.0019002474 0.024258982 -0.0087836627 9.219563e-39
-0.0022945707 -0.00034614358 -0.0086968644 9.219563e-39
-0.0022978673 0.028402908 -0.0086961389 9.219563e-39
-0.0022444369 0.028057208 -0.0087078996 9.219563e-39
-0.0022332985 -0.020517349 -0.0087103518 9.219563e-39
-0.0021886367 -0.0063768341 -0.0087201828 9.219563e-39
-0.0020512966 0.0093112011 -0.0087504135 9.219563e-39
-0.0023165832 -0.028435264 -0.0086920196 9.219563e-39
-0.0022275082 0.024842028 -0.0087116258 9.219563e-39
-0.0023692069 0.039009988 -0.0086804358 9.219563e-39
-0.0023008687 0.021042394 -0.0086954786 9.219563e-39
-0.0022791743 0.015818113 -0.0087002534 9.219563e-39
-0.0021292004 0.016881103 -0.008733266 9.219563e-39
-0.0018146717 0.02562381 -0.0088024987 9.219563e-39
-0.0023574426 0.03573275 -0.0086830249 9.219563e-39
-0.00215232 -0.015251577 -0.0087281764 9.219563e-39
-0.0014773099 0.039873537 -0.0088767586 9.219563e-39
-0.0023172717 0.014333107 -0.0086918678 9.219563e-39
-0.0020789246 -0.0068301335 -0.008744332 9.219563e-39
-0.0018783415 0.0053623472 -0.0087884841 9.219563e-39
-0.0019262849 0.0069954884 -0.0087779313 9.219563e-39
-0.0019460476 0.021079313 -0.0087735811 9.219563e-39
-0.0017199488 0.021770047 -0.0088233491 9.219563e-39
-0.0022747756 0.0037461424 -0.008701222 9.219563e-39
-0.0022896824 -0.021999042 -0.008697941 9.219563e-39
-0.0016320511 0.036404762 -0.0088426974 9.219563e-39
-0.0021267694 0.023283616 -0.0087338006 9.219563e-39
-0.0020599081 0.038854457 -0.0087485183 9.219563e-39
-0.0020760528 0.012208408 -0.0087449644 9.219563e-39
-0.0015428652 0.036018152 -0.0088623287 9.219563e-39
-0.0023065903 0.012772252 -0.0086942185 9.219563e-39
-0.0021972251 0.039945394 -0.0087182922 9.219563e-39
-0.0018758643 0.0061037196 -0.0087890299 9.219563e-39
-0.0017177284 0.034028921 -0.0088238381 9.219563e-39
-0.0019211652 0.022884458 -0.0087790582 9.219563e-39
-0.0016464493 0.024797725 -0.0088395281 9.219563e-39
-0.0023439985 0.013596328 -0.0086859846 9.219563e-39
-0.0022415405 0.024130551 -0.0087085376 9.219563e-39
-0.0020120533 0.0043408782 -0.0087590516 9.219563e-39
-0.0017049821 0.025174089 -0.0088266442 9.219563e-39
-0.002198593 -0.0075366064 -0.0087179914 9.219563e-39
-0.0024023037 -0.010592966 -0.008673151 9.219563e-39
-0.0023298792 -0.01492883 -0.0086890925 9.219563e-39
-0.0022759512 0.024516067 -0.0087009631 9.219563e-39
-0.0017534276 0.020015312 -0.0088159796 9.219563e-39
-0.0019959579 0.033323254 -0.0087625943 9.219563e-39
-0.0020550152 0.025926277 -0.0087495949 9.219563e-39
-0.0023815155 0.0023991554 -0.0086777266 9.219563e-39
-0.0021973278 0.017509066 -0.0087182699 9.219563e-39
-0.0023986406 0.0080661075 -0.0086739566 9.219563e-39
-0.0022030149 -0.013457067 -0.0087170172 9.219563e-39
-0.0020389501 -0.0071329325 -0.0087531311 9.219563e-39
-0.0017252999 0.01824303 -0.008822171 9.219563e-39
-0.0017712833 0.034577105 -0.0088120494 9.219563e-39
-0.0021830264 0.032597288 -0.0087214177 9.219563e-39
-0.0023098879 -0.021255413 -0.008693493 9.219563e-39
-0.0023037437 0.019963078 -0.0086948453 9.219563e-39
-0.0020434086 0.03432411 -0.0087521495 9.219563e-39
-0.0021459886 0.035112374 -0.0087295705 9.219563e-39
-0.0021470694 -0.009862354 -0.0087293321 9.219563e-39
-0.0019426133 0.029585702 -0.0087743364 9.219563e-39
-0.0021518723 0.02897325 -0.0087282751 9.219563e-39
-0.0023140686 0.004468652 -0.0086925728 9.219563e-39
-0.0023352669 -0.026429024 -0.0086879069 9.219563e-39
-0.0017621849 0.016898628 -0.0088140527 9.219563e-39
-0.0019068331 0.029268797 -0.0087822126 9.219563e-39
-0.0019313529 0.011710899 -0.0087768156 9.219563e-39
-0.0016230452 0.039162878 -0.0088446792 9.219563e-39
-0.0023799599 -0.016657205 -0.0086780693 9.219563e-39
-0.0019194299 0.0013669318 -0.0087794401 9.219563e-39
-0.0024047487 -0.0051177717 -0.0086726127 9.219563e-39
-0.0022091733 -0.0014894771 -0.0087156622 9.219563e-39
-0.0020899742 0.0058227791 -0.0087419003 9.219563e-39
-0.0018293777 0.015618275 -0.0087992623 9.219563e-39
-0.0020845011 0.0030910566 -0.0087431045 9.219563e-39
-0.0019321527 0.026738979 -0.0087766396 9.219563e-39
-0.0023408991 -0.0056237895 -0.0086866673 9.219563e-39
-0.0023790803 -0.0041774055 -0.0086782621 9.219563e-39
-0.0021034263 0.030939383 -0.0087389387 9.219563e-39
-0.002068802 0.010750048 -0.0087465607 9.219563e-39
-0.0022277352 0.0019404417 -0.0087115765 9.219563e-39
-0.0020140547 -0.0012111546 -0.008758611 9.219563e-39
-0.0019163042 0.0037716792 -0.0087801283 9.219563e-39
-0.0023226885 0.027219066 -0.0086906757 9.219563e-39
-0.001773229 0.014857784 -0.008811621 9.219563e-39
-0.0022876803 0.0049935183 -0.0086983815 9.219563e-39
-0.0020880802 0.0080629233 -0.0087423166 9.219563e-39
-0.0022905048 0.033832207 -0.0086977594 9.219563e-39
-0.0022268691 0.011929258 -0.0087117674 9.219563e-39
-0.0019559998 -0.00018099543 -0.0087713897 9.219563e-39
-0.001922624 0.0074482653 -0.0087787369 9.219563e-39
-0.0022674312 0.031907376 -0.0087028388 9.219563e-39
-0.0022490891 0.02055685 -0.0087068761 9.219563e-39
-0.0018046611 0.021392399 -0.0088047022 9.219563e-39
-0.0022147391 -0.023494396 -0.0087144366 9.219563e-39
-0.0023207017 -0.020110404 -0.0086911125 9.219563e-39
-0.0023484621 0.016142068 -0.0086850021 9.219563e-39
-0.0022020151 0.030615063 -0.008717238 9.219563e-39
-0.0023439678 -0.0025732678 -0.0086859912 9.219563e-39
-0.0020972993 0.0096575543 -0.0087402873 9.219563e-39
-0.0023980013 -0.035804451 -0.0086740972 9.219563e-39
-0.0016034588 0.036928643 -0.0088489912 9.219563e-39
-0.0019236929 0.036065727 -0.0087785013 9.219563e-39
-0.0023868526 -0.0070265778 -0.0086765513 9.219563e-39
-0.001923249 0.010450586 -0.0087785991 9.219563e-39
-0.0021712803 -0.0045732497 -0.0087240031 9.219563e-39
-0.0022534837 0.018403793 -0.0087059084 9.219563e-39
-0.0023474137 0.0012102274 -0.0086852331 9.219563e-39
-0.0022775503 0.036372244 -0.0087006111 9.219563e-39
-0.0022274358 0.0073233382 -0.0087116426 9.219563e-39
-0.0021798837 -0.012383005 -0.0087221097 9.219563e-39
-0.0018570286 0.01748511 -0.0087931752 9.219563e-39
-0.0023411573 0.015431541 -0.0086866105 9.219563e-39
-0.0017863776 0.020829771 -0.0088087274 9.219563e-39
-0.0021895876 0.0054853419 -0.0087199733 9.219563e-39
-0.0022835447 0.02259868 -0.0086992914 9.219563e-39
-0.0020763262 0.014004036 -0.0087449038 9.219563e-39
-0.0016345415 0.026394257 -0.0088421488 9.219563e-39
-0.0020863428 -0.011112757 -0.0087426994 9.219563e-39
-0.0020316213 0.038084175 -0.0087547442 9.219563e-39
-0.0022598433 -0.0035803136 -0.0087045087 9.219563e-39
-0.0020624797 0.026425248 -0.0087479521 9.219563e-39
-0.0023878571 0.037892442 -0.0086763306 9.219563e-39
-0.0022503578 -0.001815621 -0.0087065967 9.219563e-39
-0.0022335178 0.03300374 -0.0087103033 9.219563e-39
-0.0026115084 0.015814805 -0.0086032981 9.219563e-39
-0.002441034 -0.03176523 -0.0086607384 9.219563e-39
-0.0025983278 0.013421231 -0.0086077396 9.219563e-39
-0.0026639656 0.0045688055 -0.0085856235 9.219563e-39
-0.0029394387 -0.027135219 -0.0084928041 9.219563e-39
-0.0024365028 -0.026091356 -0.0086622648 9.219563e-39
-0.0028029354 -0.0090893367 -0.0085387984 9.219563e-39
-0.0025569035 0.00718757 -0.0086216964 9.219563e-39
-0.0031624087 -0.025634089 -0.0084176762 9.219563e-39
-0.0028488587 -0.019478543 -0.0085233245 9.219563e-39
-0.0025504513 0.00091694703 -0.008623871 9.219563e-39
-0.0029453216 -0.014704244 -0.0084908223 9.219563e-39
-0.0026066054 -0.016152808 -0.0086049503 9.219563e-39
-0.0027027116 -0.029450029 -0.0085725682 9.219563e-39
-0.0029581643 -0.010276193 -0.0084864954 9.219563e-39
-0.0026543627 0.0012595033 -0.0085888589 9.219563e-39
-0.0027740202 -0.034419809 -0.008548541 9.219563e-39
-0.0029292179 -0.021783035 -0.0084962482 9.219563e-39
-0.0024344805 0.033534352 -0.0086629465 9.219563e-39
-0.0026229103 -0.034021296 -0.0085994564 9.219563e-39
-0.0024718842 0.0030494705 -0.0086503429 9.219563e-39
-0.0025053774 0.028960807 -0.0086390581 9.219563e-39
-0.002428368 -0.026706759 -0.0086650057 9.219563e-39
-0.0032366239 -0.034841128 -0.0083926702 9.219563e-39
-0.0029156383 -0.025840323 -0.0085008238 9.219563e-39
-0.0024782615 -0.011570513 -0.0086481944 9.219563e-39
-0.0028849368 -0.025461618 -0.0085111689 9.219563e-39
-0.0028977017 -0.032499127 -0.0085068671 9.219563e-39
-0.0025860085 0.01745067 -0.0086118905 9.219563e-39
-0.0030267248 -0.033102192 -0.0084633939 9.219563e-39
-0.0026244784 -0.024485363 -0.0085989283 9.219563e-39
-0.0024729588 0.017121436 -0.0086499816 9.219563e-39
-0.0025160403 -0.019839685 -0.0086354651 9.219563e-39
-0.0029108569 -0.037005175 -0.0085024349 9.219563e-39
-0.0027498738 -0.027576651 -0.008556677 9.219563e-39
-0.002733293 0.0022214646 -0.008562264 9.219563e-39
-0.0026890906 -0.0049275896 -0.0085771577 9.219563e-39
-0.0024117476 -0.029657083 -0.0086706057 9.219563e-39
-0.0026813145 -0.0059512737 -0.0085797776 9.219563e-39
-0.0028916411 -0.039263092 -0.0085089095 9.219563e-39
-0.0025601729 -0.010830083 -0.0086205956 9.219563e-39
-0.0025287364 0.0087345559 -0.0086311875 9.219563e-39
-0.0026677449 -0.0053124796 -0.0085843494 9.219563e-39
-0.0026017479 -0.021884127 -0.0086065866 9.219563e-39
-0.0027422288 -0.023917343 -0.0085592531 9.219563e-39
-0.0028756186 -0.024926677 -0.0085143084 9.219563e-39
-0.0028340835 -0.012530771 -0.0085283034 9.219563e-39
-0.0024156263 -0.02285599 -0.0086692991 9.219563e-39
-0.002885401 -0.0063524232 -0.0085110124 9.219563e-39
-0.0032432899 -0.037073482 -0.0083904238 9.219563e-39
-0.0024878096 0.0060002366 -0.0086449776 9.219563e-39
-0.003120329 -0.03872522 -0.0084318547 9.219563e-39
-0.0030632811 -0.039508011 -0.0084510772 9.219563e-39
-0.0027251088 -0.033719569 -0.0085650217 9.219563e-39
-0.002461697 -0.013148084 -0.0086537758 9.219563e-39
-0.0026148912 -0.00075910799 -0.0086021582 9.219563e-39
-0.0025553165 -0.037678469 -0.0086222319 9.219563e-39
-0.0027328068 -0.015655832 -0.0085624279 9.219563e-39
-0.0024902553 0.015030824 -0.0086441534 9.219563e-39
-0.0025855941 -0.036933929 -0.0086120302 9.219563e-39
-0.0027781234 -0.029145095 -0.0085471589 9.219563e-39
-0.0024170389 -0.030272931 -0.0086688232 9.219563e-39
-0.0027294811 -0.0098679308 -0.0085635483 9.219563e-39
-0.0027396379 -0.037932217 -0.0085601257 9.219563e-39
-0.0028272572 -0.036688723 -0.0085306028 9.219563e-39
-0.0025699369 -0.030668989 -0.0086173052 9.219563e-39
-0.0027366127 -0.020297358 -0.0085611455 9.219563e-39
-0.0024943815 -0.0015603004 -0.0086427629 9.219563e-39
-0.0030206211 -0.018189473 -0.0084654512 9.219563e-39
-0.0024535768 0.019638134 -0.008656512 9.219563e-39
-0.0028545277 -0.0005177256 -0.0085214144 9.219563e-39
-0.0029781216 -0.03498951 -0.0084797703 9.219563e-39
-0.0024850301 0.0093334215 -0.0086459136 9.219563e-39
-0.0031812307 -0.029749056 -0.0084113348 9.219563e-39
-0.0025325299 0.025167726 -0.0086299097 9.219563e-39
-0.0026767498 -0.027226962 -0.0085813152 9.219563e-39
-0.0028259342 -0.011795637 -0.0085310489 9.219563e-39
-0.0026736788 0.011668875 -0.0085823499 9.219563e-39
-0.0029578321 -0.013305697 -0.0084866071 9.219563e-39
-0.0025805181 -0.021022502 -0.0086137401 9.219563e-39
-0.0032522427 -0.039232753 -0.0083874073 9.219563e-39
-0.0026094057 0.0090512689 -0.0086040068 9.219563e-39
-0.0031661463 -0.030403651 -0.0084164171 9.219563e-39
-0.0030392692 -0.029331006 -0.0084591676 9.219563e-39
-0.0025225193 0.02384246 -0.008633282 9.219563e-39
-0.0024243891 0.0033637865 -0.0086663468 9.219563e-39
-0.0026423873 -0.0037396993 -0.0085928934 9.219563e-39
-0.0024749071 0.0026747026 -0.008649325 9.219563e-39
-0.0026208924 0.021217644 -0.0086001363 9.219563e-39
-0.002559887 -0.00014270496 -0.0086206915 9.219563e-39
-0.0027160847 -0.023256909 -0.0085680615 9.219563e-39
-0.0024383587 -0.03323264 -0.0086616399 9.219563e-39
-0.0028038796 0.0042465748 -0.0085384799 9.219563e-39
-0.0027022343 -0.026884144 -0.0085727284 9.219563e-39
-0.0024831581 0.01873284 -0.008646545 9.219563e-39
-0.00323067 -0.035428759 -0.0083946763 9.219563e-39
-0.0028788894 -0.012124863 -0.0085132057 9.219563e-39
-0.0029417831 -0.0068312888 -0.0084920144 9.219563e-39
-0.002550418 -0.011191588 -0.0086238822 9.219563e-39
-0.0028125893 -0.01145265 -0.0085355453 9.219563e-39
-0.0030951127 -0.031665552 -0.0084403511 9.219563e-39
-0.0026308342 -0.0022486029 -0.0085967863 9.219563e-39
-0.0029058412 -0.023026811 -0.0085041253 9.219563e-39
-0.0024776389 -0.0065047778 -0.0086484049 9.219563e-39
-0.0025515319 -0.015402919 -0.0086235069 9.219563e-39
-0.0025121404 -0.032091767 -0.0086367792 9.219563e-39
-0.0025633294 0.006284955 -0.008619532 9.219563e-39
-0.0024157972 -0.017818607 -0.0086692413 9.219563e-39
-0.0024363252 0.02679104 -0.0086623244 9.219563e-39
-0.0028612644 -0.028567208 -0.0085191447 9.219563e-39
-0.0026078837 -0.037366439 -0.0086045191 9.219563e-39
-0.0027713857 -0.012823883 -0.0085494285 9.219563e-39
-0.0025022589 -0.0046908776 -0.0086401086 9.219563e-39
-0.0027104672 -0.035393756 -0.0085699549 9.219563e-39
-0.0026437812 0.014285777 -0.008592424 9.219563e-39
-0.0025060237 -0.014282314 -0.0086388402 9.219563e-39
-0.0025293983 -0.032818992 -0.0086309649 9.219563e-39
-0.0026538465 0.0067296997 -0.008589033 9.219563e-39
-0.0028731273 -0.018517893 -0.0085151475 9.219563e-39
-0.0027545416 0.0056620962 -0.008555104 9.219563e-39
-0.0027129364 0.011167791 -0.0085691223 9.219563e-39
-0.002503712 -0.03239619 -0.0086396197 9.219563e-39
-0.0030242961 -0.020026239 -0.0084642125 9.219563e-39
-0.0025496865 -0.038207926 -0.008624129 9.219563e-39
-0.0026565406 -0.039563283 -0.008588125 9.219563e-39
-0.0024869188 0.0096613392 -0.0086452775 9.219563e-39
-0.0029695616 -0.016319534 -0.0084826546 9.219563e-39
-0.0024454203 0.031582244 -0.0086592603 9.219563e-39
-0.0024219567 -0.025737999 -0.0086671663 9.219563e-39
-0.0025882982 0.01382515 -0.0086111184 9.219563e-39
-0.0025196918 0.02865858 -0.0086342348 9.219563e-39
-0.0027733159 -0.035699811 -0.0085487785 9.219563e-39
-0.0028451202 -0.0084913531 -0.0085245846 9.219563e-39
-0.0027098709 0.0015791875 -0.0085701561 9.219563e-39
-0.002453581 -0.03462914 -0.0086565102 9.219563e-39
-0.002468972 0.016722029 -0.0086513245 9.219563e-39
-0.00277009 -0.0095694819 -0.0085498653 9.219563e-39
-0.002728767 0.0032458599 -0.0085637886 9.219563e-39
-0.0031405683 -0.028835624 -0.0084250355 9.219563e-39
-0.0025342973 0.010307289 -0.0086293137 9.219563e-39
-0.0025043793 -0.012259912 -0.0086393943 9.219563e-39
-0.0024572769 0.0041834721 -0.008655265 9.219563e-39
-0.0026432117 0.017966503 -0.0085926158 9.219563e-39
-0.0024619428 -0.010161889 -0.0086536929 9.219563e-39
-0.002545181 0.018315898 -0.0086256471 9.219563e-39
-0.0025964044 -0.031108238 -0.0086083869 9.219563e-39
-0.0025065357 -0.028215131 -0.0086386679 9.219563e-39
-0.0026281963 -0.026405705 -0.0085976757 9.219563e-39
-0.002905753 -0.030515544 -0.0085041551 9.219563e-39
-0.0024494827 -0.027528001 -0.0086578913 9.219563e-39
-0.0029334221 -0.023599183 -0.0084948316 9.219563e-39
-0.0024504762 -0.012628512 -0.008657557 9.219563e-39
-0.0024360004 -0.03518625 -0.0086624343 9.219563e-39
-0.0027174018 -0.0029266675 -0.0085676182 9.219563e-39
-0.0025428585 0.019022355 -0.0086264294 9.219563e-39
-0.0027591179 0.0076982216 -0.0085535627 9.219563e-39
-0.002660482 -0.034948528 -0.0085867969 9.219563e-39
-0.0025358566 -0.0086845653 -0.0086287884 9.219563e-39
-0.0029253978 -0.021365989 -0.0084975353 9.219563e-39
-0.0027127138 -0.0041796216 -0.0085691977 9.219563e-39
-0.0030052206 -0.014213071 -0.0084706396 9.219563e-39
-0.0028664509 -0.031921681 -0.0085173976 9.219563e-39
-0.0029030477 -0.038957138 -0.0085050659 9.219563e-39
-0.0028121397 -0.020799538 -0.0085356971 9.219563e-39
-0.0026749426 -0.036287032 -0.0085819243 9.219563e-39
-0.0027221651 -0.019098565 -0.0085660135 9.219563e-39
-0.0025630819 0.024215193 -0.0086196149 9.219563e-39
-0.0024693529 -0.0011821643 -0.008651196 9.219563e-39
-0.0031631549 -0.038145401 -0.0084174247 9.219563e-39
-0.0025223263 0.021509951 -0.0086333472 9.219563e-39
-0.0026783093 0.0035477749 -0.0085807899 9.219563e-39
-0.0026036967 0.020316172 -0.00860593 9.219563e-39
-0.003089255 -0.03743469 -0.0084423255 9.219563e-39
-0.0028150806 -0.038607292 -0.0085347062 9.219563e-39
-0.0028376975 -0.032806922 -0.0085270852 9.219563e-39
-0.0025141921 0.010878825 -0.0086360881 9.219563e-39
-0.0027823669 -0.039997414 -0.0085457284 9.219563e-39
-0.0024086284 -0.038563222 -0.0086716572 9.219563e-39
-0.0025180499 0.023118164 -0.008634788 9.219563e-39
-0.0024886334 0.030952042 -0.0086447001 9.219563e-39
-0.0029783414 -0.030115318 -0.0084796967 9.219563e-39
-0.0030915933 -0.034391928 -0.0084415376 9.219563e-39
-0.0027592171 -0.0072222939 -0.0085535292 9.219563e-39
-0.002702086 -0.016513685 -0.0085727787 9.219563e-39
-0.0032874497 -0.038478009 -0.008375545 9.219563e-39
-0.0028748461 -0.026622135 -0.0085145682 9.219563e-39
-0.0028438182 -0.019784272 -0.0085250232 9.219563e-39
-0.002539465 -0.0019654732 -0.008627573 9.219563e-39
-0.0027859323 -0.0016447793 -0.008544527 9.219563e-39
-0.002656043 -0.013857028 -0.0085882926 9.219563e-39
-0.0029750604 -0.02457583 -0.0084808022 9.219563e-39
-0.0031005177 -0.033854883 -0.0084385304 9.219563e-39
-0.0025494532 -0.028648373 -0.0086242072 9.219563e-39
-0.0031246389 -0.026169058 -0.0084304027 9.219563e-39
-0.0029862514 -0.018988466 -0.0084770313 9.219563e-39
-0.0025778266 -0.025243673 -0.0086146472 9.219563e-39
-0.0028229181 -0.015174875 -0.008532065 9.219563e-39
-0.0028403727 -0.022727983 -0.0085261837 9.219563e-39
-0.0031218999 -0.036439005 -0.0084313257 9.219563e-39
-0.002625104 -0.0079444405 -0.0085987169 9.219563e-39
-0.0027190486 -0.016984668 -0.0085670631 9.219563e-39
-0.0028897449 -0.028099027 -0.0085095484 9.219563e-39
-0.0026573339 0.0049835183 -0.0085878577 9.219563e-39
-0.0027011125 -0.0025641501 -0.0085731065 9.219563e-39
-0.0029485249 -0.034115866 -0.0084897429 9.219563e-39
-0.0028547253 -0.038286988 -0.0085213482 9.219563e-39
-0.002873108 -0.036074702 -0.008515154 9.219563e-39
-0.0026877855 -0.03153972 -0.0085775973 9.219563e-39
-0.0026478427 -0.030035561 -0.0085910559 9.219563e-39
-0.0025839407 0.022728138 -0.0086125871 9.219563e-39
-0.0025994645 0.0053699948 -0.0086073559 9.219563e-39
-0.0024257295 -0.0082222968 -0.0086658951 9.219563e-39
-0.0029931916 -0.013641129 -0.0084746927 9.219563e-39
-0.0030726786 -0.031274091 -0.0084479107 9.219563e-39
-0.0024965855 -0.0076269773 -0.0086420206 9.219563e-39
-0.0024881777 -0.018636089 -0.0086448537 9.219563e-39
-0.0031891949 -0.03776573 -0.0084086508 9.219563e-39
-0.0026011933 -0.018070512 -0.0086067738 9.219563e-39
-0.0029560039 -0.03089986 -0.0084872227 9.219563e-39
-0.002493904 0.011435691 -0.008642924 9.219563e-39
-0.0025794932 -0.020576842 -0.0086140856 9.219563e-39
-0.0026423037 -0.014588371 -0.0085929222 9.219563e-39
-0.0026705742 -0.010360868 -0.0085833967 9.219563e-39
-0.0029326256 -0.017818948 -0.0084950998 9.219563e-39
-0.0029643469 -0.033493116 -0.008484412 9.219563e-39
-0.0025826369 -0.017541718 -0.0086130258 9.219563e-39
-0.0029965977 -0.024217552 -0.0084735453 9.219563e-39
-0.0024321522 -0.024117958 -0.0086637307 9.219563e-39
-0.0024749944 0.0056852428 -0.0086492952 9.219563e-39
-0.0027511793 0.009484306 -0.0085562374 9.219563e-39
-0.0028608034 -0.016015196 -0.0085193003 9.219563e-39
-0.0024586862 -0.024959341 -0.00865479 9.219563e-39
-0.0029704315 -0.017492291 -0.0084823621 9.219563e-39
-0.0025474888 -0.013449471 -0.0086248694 9.219563e-39
-0.0024526117 0.012266929 -0.008656837 9.219563e-39
-0.0028796291 -0.0080773272 -0.008512957 9.219563e-39
-0.0028282856 -0.022408377 -0.0085302563 9.219563e-39
-0.0029087546 0.018916568 -0.0085031437 9.219563e-39
-0.0029484406 0.035567842 -0.0084897717 9.219563e-39
-0.003209427 -0.022397196 -0.0084018344 9.219563e-39
-0.0032071017 0.032763742 -0.0084026176 9.219563e-39
-0.0031823434 -0.0073736715 -0.0084109595 9.219563e-39
-0.0030858025 -0.0027263989 -0.0084434887 9.219563e-39
-0.0032727714 0.0083600543 -0.0083804904 9.219563e-39
-0.0027558508 0.016879439 -0.0085546635 9.219563e-39
-0.0030921947 -0.0060287919 -0.0084413346 9.219563e-39
-0.0031012981 0.012587766 -0.0084382668 9.219563e-39
-0.0032024009 -0.028463935 -0.0084042018 9.219563e-39
-0.0032384498 0.010154403 -0.0083920546 9.219563e-39
-0.002630888 0.0294658 -0.0085967686 9.219563e-39
-0.0029055986 -0.0008814279 -0.0085042063 9.219563e-39
-0.0033020182 -0.02687444 -0.008370636 9.219563e-39
-0.0031673922 0.031647619 -0.008415997 9.219563e-39
-0.0030829478 0.021825725 -0.0084444499 9.219563e-39
-0.0029403337 -0.0022787501 -0.0084925033 9.219563e-39
-0.0028325217 0.022933356 -0.0085288296 9.219563e-39
-0.0031858634 0.0089984518 -0.0084097739 9.219563e-39
-0.0031112188 -0.01154903 -0.0084349243 9.219563e-39
-0.003205196 -0.013135388 -0.0084032593 9.219563e-39
-0.0029405721 0.039445974 -0.0084924223 9.219563e-39
-0.0032399164 0.0032242234 -0.008391561 9.219563e-39
-0.0031983098 -0.012787209 -0.0084055802 9.219563e-39
-0.0028774093 0.0052801413 -0.0085137049 9.219563e-39
-0.0032205079 -0.0085701998 -0.0083981007 9.219563e-39
-0.0029003769 0.019510653 -0.0085059665 9.219563e-39
-0.0030766425 -0.0088557191 -0.0084465751 9.219563e-39
-0.003270464 0.011177061 -0.008381268 9.219563e-39
-0.0025277175 0.029743584 -0.0086315311 9.219563e-39
-0.002819194 0.026256671 -0.0085333204 9.219563e-39
-0.0029616698 0.027564349 -0.0084853135 9.219563e-39
-0.0029795694 0.039749324 -0.0084792832 9.219563e-39
-0.0031166999 0.026358677 -0.0084330775 9.219563e-39
-0.0031751203 0.00046710754 -0.0084133931 9.219563e-39
-0.0033017022 -0.02013864 -0.0083707422 9.219563e-39
-0.0032957171 -0.0023680122 -0.0083727594 9.219563e-39
-0.0030512316 0.027877364 -0.0084551368 9.219563e-39
-0.0030720588 -0.0045937179 -0.0084481193 9.219563e-39
-0.0031928185 0.028954731 -0.0084074298 9.219563e-39
-0.0030592266 0.038098216 -0.0084524425 9.219563e-39
-0.0030363663 0.001439575 -0.0084601454 9.219563e-39
-0.003282839 -0.021792196 -0.0083770985 9.219563e-39
-0.0028794741 0.023928223 -0.0085130092 9.219563e-39
-0.0030346902 0.0034418113 -0.0084607098 9.219563e-39
-0.0029979767 -0.003337038 -0.0084730806 9.219563e-39
-0.0027868228 0.010149438 -0.0085442271 9.219563e-39
-0.0033106599 -0.021187445 -0.0083677247 9.219563e-39
-0.003151824 0.015084694 -0.0084212432 9.219563e-39
-0.0028618893 0.0026648173 -0.0085189342 9.219563e-39
-0.0028458731 0.0083252285 -0.0085243303 9.219563e-39
-0.0030171562 0.0030128504 -0.0084666181 9.219563e-39
-0.0031425431 0.003958974 -0.0084243696 9.219563e-39
-0.003047399 0.0056219087 -0.0084564285 9.219563e-39
-0.0033027972 0.034700755 -0.0083703734 9.219563e-39
-0.0030871583 0.0020497167 -0.0084430315 9.219563e-39
-0.0030000415 0.00075260719 -0.0084723849 9.219563e-39
-0.0030983703 0.033921145 -0.008439254 9.219563e-39
-0.0032802294 -0.013850186 -0.0083779776 9.219563e-39
-0.0029128438 0.037138626 -0.0085017653 9.219563e-39
-0.0032594164 -0.01704496 -0.0083849905 9.219563e-39
-0.003126316 0.017750166 -0.0084298374 9.219563e-39
-0.0032277652 0.0026633879 -0.0083956551 9.219563e-39
-0.0025683041 0.038426034 -0.0086178556 9.219563e-39
-0.002850221 0.02991079 -0.0085228654 9.219563e-39
-0.0026574144 0.020006899 -0.0085878307 9.219563e-39
-0.0032016945 0.024843337 -0.0084044393 9.219563e-39
-0.0031759802 0.013402448 -0.0084131034 9.219563e-39
-0.0031782289 -0.0049838433 -0.0084123462 9.219563e-39
-0.0029247103 0.0068702456 -0.0084977672 9.219563e-39
-0.0033064587 -0.023637131 -0.0083691403 9.219563e-39
-0.0032641229 -0.025337322 -0.0083834045 9.219563e-39
-0.0025814129 0.032015752 -0.0086134383 9.219563e-39
-0.0033020468 -0.018223871 -0.0083706267 9.219563e-39
-0.0027377501 0.013037799 -0.0085607618 9.219563e-39
-0.0033025604 0.0095326398 -0.0083704535 9.219563e-39
-0.0030013504 0.0044910111 -0.0084719434 9.219563e-39
-0.0025612395 0.030294774 -0.0086202361 9.219563e-39
-0.0030468183 0.031272165 -0.0084566241 9.219563e-39
-0.0030014929 -0.0040014177 -0.0084718959 9.219563e-39
-0.0031197642 -0.0053603924 -0.0084320456 9.219563e-39
-0.0030744085 0.02049369 -0.0084473277 9.219563e-39
-0.0033164034 0.0043570502 -0.0083657894 9.219563e-39
-0.0033171307 -0.0013721032 -0.0083655445 9.219563e-39
-0.0032452645 -0.014802712 -0.0083897589 9.219563e-39
-0.0028213514 0.015148563 -0.008532593 9.219563e-39
-0.0029054508 0.0090739327 -0.0085042566 9.219563e-39
-0.0032973199 -0.035868809 -0.0083722193 9.219563e-39
-0.0026078788 0.024880596 -0.0086045209 9.219563e-39
-0.0033035078 0.038452119 -0.008370134 9.219563e-39
-0.0026534738 0.020651918 -0.0085891578 9.219563e-39
-0.0028728857 0.025172584 -0.0085152294 9.219563e-39
-0.0028990426 0.024388239 -0.0085064154 9.219563e-39
-0.0028310933 0.0127547 -0.008529311 9.219563e-39
-0.0026708401 0.02190654 -0.0085833063 9.219563e-39
-0.0028824389 0.01835083 -0.0085120099 9.219563e-39
-0.0030830794 0.016302824 -0.0084444061 9.219563e-39
-0.0025467882 0.039376847 -0.008625105 9.219563e-39
