# .PCD v0.7 - Point Cloud Data file format
VERSION 0.7
FIELDS x y z rgb
SIZE 4 4 4 4
TYPE F F F F
COUNT 1 1 1 1
WIDTH 1033
HEIGHT 1
VIEWPOINT 0 0 0 1 0 0 0
POINTS 1033
DATA ascii
0.0557 0.036341481 0.0096328901 2.3418052e-38
0.0557 0.022385148 0.0010868994 2.3418052e-38
0.0557 0.014553281 0.0019834999 2.3418052e-38
0.0557 0.029364683 0.0054778084 2.3418052e-38
0.0557 0.044206098 2.928601e-05 2.3418052e-38
0.0557 0.042096507 0.012800613 2.3418052e-38
0.0557 0.024786646 0.0076218769 2.3418052e-38
0.0557 0.0375605 0.0089352159 2.3418052e-38
0.0557 0.043139942 0.0120672 2.3418052e-38
0.0557 0.037758589 0.0061814459 2.3418052e-38
0.0557 0.040518269 0.0025908346 2.3418052e-38
0.0557 0.04061804 0.0049101165 2.3418052e-38
0.0557 0.044530995 0.0213768 2.3418052e-38
0.0557 0.043356337 0.013814609 2.3418052e-38
0.0557 0.030378601 0.012025637 2.3418052e-38
0.0557 0.04514863 0.0068442873 2.3418052e-38
0.0557 0.034066085 0.0027427326 2.3418052e-38
0.0557 0.017028989 0.0019041472 2.3418052e-38
0.0557 0.021000102 0.0070279725 2.3418052e-38
0.0557 0.040262196 0.0059705609 2.3418052e-38
0.0557 0.028656896 0.00033065645 2.3418052e-38
0.0557 0.018216463 0.0011644503 2.3418052e-38
0.0557 0.039160956 0.010142584 2.3418052e-38
0.0557 0.013889265 0.00075227377 2.3418052e-38
0.0557 0.03510341 0.0076947152 2.3418052e-38
0.0557 0.04006274 0.00029287321 2.3418052e-38
0.0557 0.02922133 0.008072908 2.3418052e-38
0.0557 0.02869283 0.011927941 2.3418052e-38
0.0557 0.04454701 0.019281331 2.3418052e-38
0.0557 0.043517418 0.0097123133 2.3418052e-38
0.0557 0.032825183 0.015429393 2.3418052e-38
0.0557 0.038341932 0.015549434 2.3418052e-38
0.0557 0.031825155 0.014229598 2.3418052e-38
0.0557 0.04254327 0.0076216701 2.3418052e-38
0.0557 0.040826511 0.016280901 2.3418052e-38
0.0557 0.041805398 0.0052592186 2.3418052e-38
0.0557 0.044796787 0.0041377353 2.3418052e-38
0.0557 0.036041711 0.01030209 2.3418052e-38
0.0557 0.038333125 0.017920898 2.3418052e-38
0.0557 0.033320248 0.0033915804 2.3418052e-38
0.0557 0.043791946 0.013046819 2.3418052e-38
0.0557 0.026202723 0.0081531452 2.3418052e-38
0.0557 0.03554967 0.016206555 2.3418052e-38
0.0557 0.043514308 0.022705646 2.3418052e-38
0.0557 0.023028871 0.0045065233 2.3418052e-38
0.0557 0.039390471 0.015467865 2.3418052e-38
0.0557 0.04069344 0.013809306 2.3418052e-38
0.0557 0.023300093 0.0053611407 2.3418052e-38
0.0557 0.029799806 0.0012046762 2.3418052e-38
0.0557 0.040537126 0.0018562916 2.3418052e-38
0.0557 0.033306018 0.011448042 2.3418052e-38
0.0557 0.044585761 0.0051248283 2.3418052e-38
0.0557 0.039124683 0.0051643299 2.3418052e-38
0.0557 0.033783536 0.0011818362 2.3418052e-38
0.0557 0.028544893 0.0027651163 2.3418052e-38
0.0557 0.021494126 0.0036995173 2.3418052e-38
0.0557 0.034690868 0.0042897733 2.3418052e-38
0.0557 0.034578983 0.0010181973 2.3418052e-38
0.0557 0.033068061 0.0016622614 2.3418052e-38
0.0557 0.044918854 0.0025822169 2.3418052e-38
0.0557 0.022152988 0.0033664519 2.3418052e-38
0.0557 0.032181464 0.0042518196 2.3418052e-38
0.0557 0.033945978 0.0039137639 2.3418052e-38
0.0557 0.015523653 -0.00025594028 2.3418052e-38
0.0557 0.027906509 0.00060840626 2.3418052e-38
0.0557 0.041791912 0.021533262 2.3418052e-38
0.0557 0.023411363 0.0038198794 2.3418052e-38
0.0557 0.040459149 0.0041341945 2.3418052e-38
0.0557 0.024374818 0.0030650294 2.3418052e-38
0.0557 0.021366118 0.0058277845 2.3418052e-38
0.0557 0.042774044 0.022484597 2.3418052e-38
0.0557 0.020279756 0.001098614 2.3418052e-38
0.0557 0.029340878 0.0096992059 2.3418052e-38
0.0557 0.0407269 0.0067405999 2.3418052e-38
0.0557 0.037407864 0.0080884034 2.3418052e-38
0.0557 0.042822026 0.01132038 2.3418052e-38
0.0557 0.037879899 0.007435584 2.3418052e-38
0.0557 0.037690341 0.019097609 2.3418052e-38
0.0557 0.03746672 0.015097423 2.3418052e-38
0.0557 0.039921813 0.007192479 2.3418052e-38
0.0557 0.033098578 0.0079504009 2.3418052e-38
0.0557 0.029681658 0.0089961411 2.3418052e-38
0.0557 0.041038983 0.0079991743 2.3418052e-38
0.0557 0.033943728 0.015415218 2.3418052e-38
0.0557 0.044804972 0.011977373 2.3418052e-38
0.0557 0.042656727 0.015684463 2.3418052e-38
0.0557 0.038911249 0.0013824758 2.3418052e-38
0.0557 0.027975595 0.01214791 2.3418052e-38
0.0557 0.037566949 0.016495841 2.3418052e-38
0.0557 0.031201458 0.0085501196 2.3418052e-38
0.0557 0.025338912 0.0011735458 2.3418052e-38
0.0557 0.016280755 0.0006362694 2.3418052e-38
0.0557 0.039938986 0.014509499 2.3418052e-38
0.0557 0.032716151 0.0087896958 2.3418052e-38
0.0557 0.038109243 0.0094984565 2.3418052e-38
0.0557 0.039025169 0.0039007301 2.3418052e-38
0.0557 0.023011632 -0.00020347974 2.3418052e-38
0.0557 0.044490982 0.015231647 2.3418052e-38
0.0557 0.044952173 0.016349828 2.3418052e-38
0.0557 0.043248337 0.020269213 2.3418052e-38
0.0557 0.043473035 0.0047956728 2.3418052e-38
0.0557 0.031028593 0.011419833 2.3418052e-38
0.0557 0.032007098 0.0030780025 2.3418052e-38
0.0557 0.035281926 0.011211157 2.3418052e-38
0.0557 0.014579569 0.0030212987 2.3418052e-38
0.0557 0.040883522 0.0087425206 2.3418052e-38
0.0557 0.035243552 0.008765351 2.3418052e-38
0.0557 0.043960135 0.00080750964 2.3418052e-38
0.0557 0.028614461 0.0052360045 2.3418052e-38
0.0557 0.04115225 0.00069137779 2.3418052e-38
0.0557 0.01931357 0.001029591 2.3418052e-38
0.0557 0.040351808 0.018310566 2.3418052e-38
0.0557 0.029016703 0.003420973 2.3418052e-38
0.0557 0.034444951 0.014267889 2.3418052e-38
0.0557 0.04016602 0.0081966864 2.3418052e-38
0.0557 0.043169856 0.017291237 2.3418052e-38
0.0557 0.033699967 0.010773364 2.3418052e-38
0.0557 0.043950666 0.020698816 2.3418052e-38
0.0557 0.031802349 0.00045908309 2.3418052e-38
0.0557 0.025464101 0.0085005891 2.3418052e-38
0.0557 0.024683986 0.0016723782 2.3418052e-38
0.0557 0.038485996 0.012329343 2.3418052e-38
0.0557 0.042693805 0.0056294631 2.3418052e-38
0.0557 0.037669208 0.01189056 2.3418052e-38
0.0557 0.04119996 0.020090673 2.3418052e-38
0.0557 0.037765283 0.0019276801 2.3418052e-38
0.0557 0.036549527 0.015729379 2.3418052e-38
0.0557 0.041461829 0.0071586999 2.3418052e-38
0.0557 0.03254452 0.0052005076 2.3418052e-38
0.0557 0.031271521 0.0051878486 2.3418052e-38
0.0557 0.029517978 0.0047158627 2.3418052e-38
0.0557 0.039457969 0.0086075198 2.3418052e-38
0.0557 0.030881893 0.00034026348 2.3418052e-38
0.0557 0.027262947 0.0031176312 2.3418052e-38
0.0557 0.043683875 0.019503456 2.3418052e-38
0.0557 0.037169106 0.012490514 2.3418052e-38
0.0557 0.037310828 0.0044135647 2.3418052e-38
0.0557 0.032656521 0.014250672 2.3418052e-38
0.0557 0.023483112 0.0087964069 2.3418052e-38
0.0557 0.02696779 0.0038536638 2.3418052e-38
0.0557 0.028947564 0.006726841 2.3418052e-38
0.0557 0.030030403 0.010075423 2.3418052e-38
0.0557 0.030581774 0.0029799328 2.3418052e-38
0.0557 0.042244464 0.0010628611 2.3418052e-38
0.0557 0.026584033 0.011278462 2.3418052e-38
0.0557 0.03712555 0.0053527146 2.3418052e-38
0.0557 0.025314385 0.0067157531 2.3418052e-38
0.0557 0.038214933 0.0035923256 2.3418052e-38
0.0557 0.042984817 0.0038899584 2.3418052e-38
0.0557 0.031431742 0.0098825423 2.3418052e-38
0.0557 0.03450555 0.013417911 2.3418052e-38
0.0557 0.027525479 0.00433608 2.3418052e-38
0.0557 0.035605893 0.0039897393 2.3418052e-38
0.0557 0.033334121 0.0045116963 2.3418052e-38
0.0557 0.039666913 0.0013718694 2.3418052e-38
0.0557 0.019003415 0.001758287 2.3418052e-38
0.0557 0.024524998 0.004930438 2.3418052e-38
0.0557 0.045149349 0.012821895 2.3418052e-38
0.0557 0.025216721 0.0030191557 2.3418052e-38
0.0557 0.033190463 0.0098949056 2.3418052e-38
0.0557 0.025076035 0.010107188 2.3418052e-38
0.0557 0.042562265 0.014769193 2.3418052e-38
0.0557 0.036164694 0.0048331479 2.3418052e-38
0.0557 0.035791013 0.0060056881 2.3418052e-38
0.0557 0.031735115 0.0091568893 2.3418052e-38
0.0557 0.020300359 0.0020287174 2.3418052e-38
0.0557 0.028785218 0.0088135712 2.3418052e-38
0.0557 0.042936169 0.010565961 2.3418052e-38
0.0557 0.024025843 0.0076523824 2.3418052e-38
0.0557 0.019747511 0.0026668035 2.3418052e-38
0.0557 0.043105926 0.0018812201 2.3418052e-38
0.0557 0.035925943 0.014200703 2.3418052e-38
0.0557 0.035404515 0.0013286083 2.3418052e-38
0.0557 0.044748932 0.0014034702 2.3418052e-38
0.0557 0.032775011 0.00045554669 2.3418052e-38
0.0557 0.02774759 0.0093264189 2.3418052e-38
0.0557 0.034593966 0.0096959649 2.3418052e-38
0.0557 0.023741107 0.0065121762 2.3418052e-38
0.0557 0.027684581 0.011265523 2.3418052e-38
0.0557 0.031713471 0.0015118351 2.3418052e-38
0.0557 0.034864593 0.0020578068 2.3418052e-38
0.0557 0.031855442 0.011010166 2.3418052e-38
0.0557 0.036000196 0.00030804428 2.3418052e-38
0.0557 0.020933472 1.9388572e-05 2.3418052e-38
0.0557 0.033593915 0.0066844658 2.3418052e-38
0.0557 0.030804856 0.0092787314 2.3418052e-38
0.0557 0.020346617 0.0059572929 2.3418052e-38
0.0557 0.038371295 0.010632425 2.3418052e-38
0.0557 0.030803645 0.0076349848 2.3418052e-38
0.0557 0.043380618 0.015502206 2.3418052e-38
0.0557 0.028373884 0.0013076457 2.3418052e-38
0.0557 0.029010491 0.012876539 2.3418052e-38
0.0557 0.042963892 0.0069256998 2.3418052e-38
0.0557 0.043488216 0.014709125 2.3418052e-38
0.0557 0.038002856 0.013655691 2.3418052e-38
0.0557 0.042232793 0.016449492 2.3418052e-38
0.0557 0.037656091 0.0010148524 2.3418052e-38
0.0557 0.032146007 0.0082457038 2.3418052e-38
0.0557 0.019693136 0.0054294514 2.3418052e-38
0.0557 0.03711237 0.018344579 2.3418052e-38
0.0557 0.043619551 0.0034282417 2.3418052e-38
0.0557 0.022032976 0.0062951832 2.3418052e-38
0.0557 0.02279433 0.0060225013 2.3418052e-38
0.0557 0.038468253 0.0027720674 2.3418052e-38
0.0557 0.039768379 0.0037064289 2.3418052e-38
0.0557 0.041571446 0.011115418 2.3418052e-38
0.0557 0.039863653 0.0052161324 2.3418052e-38
0.0557 0.029327715 0.011488254 2.3418052e-38
0.0557 0.041372407 0.0023945067 2.3418052e-38
0.0557 0.040097449 0.0091592101 2.3418052e-38
0.0557 0.044185963 0.023085298 2.3418052e-38
0.0557 0.040830109 0.011053511 2.3418052e-38
0.0557 0.030366456 0.0083415499 2.3418052e-38
0.0557 0.036174469 0.0068026287 2.3418052e-38
0.0557 0.044361874 0.011280277 2.3418052e-38
0.0557 0.027700312 0.0069130422 2.3418052e-38
0.0557 0.018437808 0.0025414359 2.3418052e-38
0.0557 0.031688768 0.006579963 2.3418052e-38
0.0557 0.044465933 0.023900956 2.3418052e-38
0.0557 0.028578747 0.0075828666 2.3418052e-38
0.0557 0.023797436 0.0045740474 2.3418052e-38
0.0557 0.014564844 0.00027244951 2.3418052e-38
0.0557 0.015692895 0.0014055517 2.3418052e-38
0.0557 0.040810198 0.01298774 2.3418052e-38
0.0557 0.041428059 0.01925627 2.3418052e-38
0.0557 0.030412223 0.013284978 2.3418052e-38
0.0557 0.037365135 0.0031744321 2.3418052e-38
0.0557 0.03416295 0.0048317788 2.3418052e-38
0.0557 0.026052797 0.0038714192 2.3418052e-38
0.0557 0.024368905 0.0089447731 2.3418052e-38
0.0557 0.037100084 0.0073337415 2.3418052e-38
0.0557 0.038625561 0.014714001 2.3418052e-38
0.0557 0.014967221 0.0012803306 2.3418052e-38
0.0557 0.039112553 -0.00030209371 2.3418052e-38
0.0557 0.042848811 0.018576356 2.3418052e-38
0.0557 0.031237101 -0.00031334392 2.3418052e-38
0.0557 0.038645163 0.016215429 2.3418052e-38
0.0557 0.016136996 0.0023490216 2.3418052e-38
0.0557 0.044919528 0.022874441 2.3418052e-38
0.0557 0.040154934 0.019361064 2.3418052e-38
0.0557 0.035023194 0.010424406 2.3418052e-38
0.0557 0.027711635 0.0078475811 2.3418052e-38
0.0557 0.042521797 0.019629918 2.3418052e-38
0.0557 0.034897994 0.005014651 2.3418052e-38
0.0557 0.032457303 0.0064770812 2.3418052e-38
0.0557 0.043576211 0.0061749257 2.3418052e-38
0.0557 0.045107402 0.022123607 2.3418052e-38
0.0557 0.039974134 0.020538036 2.3418052e-38
0.0557 0.022259817 0.004810188 2.3418052e-38
0.0557 0.027743865 0.0018066196 2.3418052e-38
0.0557 0.019626809 0.0044948054 2.3418052e-38
0.0557 0.036097717 0.012089216 2.3418052e-38
0.0557 0.03955726 0.0026334636 2.3418052e-38
0.0557 0.040137719 0.01675747 2.3418052e-38
0.0557 0.026359066 0.0045935558 2.3418052e-38
0.0557 0.035485558 0.009592169 2.3418052e-38
0.0557 0.041654449 0.0040246663 2.3418052e-38
0.0557 0.033606373 0.012362198 2.3418052e-38
0.0557 0.034532551 0.0063763629 2.3418052e-38
0.0557 0.030337073 0.0064354376 2.3418052e-38
0.0557 0.036978044 0.014188372 2.3418052e-38
0.0557 0.038551092 0.018668253 2.3418052e-38
0.0557 0.019931965 8.32769e-05 2.3418052e-38
0.0557 0.040433485 0.012306281 2.3418052e-38
0.0557 0.041934751 0.018154785 2.3418052e-38
0.0557 0.036670484 0.0021143658 2.3418052e-38
0.0557 0.037587076 0.017285243 2.3418052e-38
0.0557 0.031096777 0.0020113932 2.3418052e-38
0.0557 0.034025669 0.016772915 2.3418052e-38
0.0557 0.042335566 0.001913233 2.3418052e-38
0.0557 0.018957948 0.0051618824 2.3418052e-38
0.0557 0.037089441 0.00051173131 2.3418052e-38
0.0557 0.042992465 0.013016378 2.3418052e-38
0.0557 0.029707814 0.010771777 2.3418052e-38
0.0557 0.016795939 0.0031465865 2.3418052e-38
0.0557 0.044555638 0.0032538075 2.3418052e-38
0.0557 0.039613139 0.018548239 2.3418052e-38
0.0557 0.038419295 0.0056850566 2.3418052e-38
0.0557 0.042822845 0.02166307 2.3418052e-38
0.0557 0.044754099 0.013549997 2.3418052e-38
0.0557 0.044798903 0.017496882 2.3418052e-38
0.0557 0.035422523 0.01293187 2.3418052e-38
0.0557 0.038063936 0.0044971984 2.3418052e-38
0.0557 0.043853518 0.0017699777 2.3418052e-38
0.0557 0.034742992 0.015440915 2.3418052e-38
0.0557 0.018570678 0.00045251253 2.3418052e-38
0.0557 0.036608543 0.0033589117 2.3418052e-38
0.0557 0.029814174 0.0035650439 2.3418052e-38
0.0557 0.033455942 0.0091781896 2.3418052e-38
0.0557 0.043421715 0.018116795 2.3418052e-38
0.0557 0.036935613 0.0066029602 2.3418052e-38
0.0557 0.031634655 0.013192545 2.3418052e-38
0.0557 0.028682513 0.011044636 2.3418052e-38
0.0557 0.044055812 0.017461868 2.3418052e-38
0.0557 0.021658856 0.0076035121 2.3418052e-38
0.0557 0.043296244 0.0079687303 2.3418052e-38
0.0557 0.02319848 0.0017000763 2.3418052e-38
0.0557 0.022869898 0.0078394599 2.3418052e-38
0.0557 0.032170553 0.0099453479 2.3418052e-38
0.0557 0.042093579 0.013727603 2.3418052e-38
0.0557 0.032360602 0.0074190395 2.3418052e-38
0.0557 0.026370307 0.0022498243 2.3418052e-38
0.0557 0.02405574 0.00041878209 2.3418052e-38
0.0557 0.028088136 0.010571629 2.3418052e-38
0.0557 0.031049378 0.0011651469 2.3418052e-38
0.0557 0.029071974 0.00098278956 2.3418052e-38
0.0557 0.02075558 0.0045189438 2.3418052e-38
0.0557 0.044508133 0.0064703287 2.3418052e-38
0.0557 0.018738868 0.003304902 2.3418052e-38
0.0557 0.044339038 0.022230303 2.3418052e-38
0.0557 0.036109149 0.01319175 2.3418052e-38
0.0557 0.0406822 0.017485145 2.3418052e-38
0.0557 0.024572125 0.0065374402 2.3418052e-38
0.0557 0.028461853 0.0098152738 2.3418052e-38
0.0557 0.032767501 0.012915743 2.3418052e-38
0.0557 0.025836887 0.0052633896 2.3418052e-38
0.0557 0.041153148 0.0095983027 2.3418052e-38
0.0557 0.022563634 0.0069278581 2.3418052e-38
0.0557 0.038846325 0.013410844 2.3418052e-38
0.0557 0.044427671 0.0074521997 2.3418052e-38
0.0557 0.03848023 0.0079839332 2.3418052e-38
0.0557 0.017932268 0.0037822607 2.3418052e-38
0.0557 0.039960925 0.010089331 2.3418052e-38
0.0557 0.033611003 0.014322408 2.3418052e-38
0.0557 0.040103223 0.013282612 2.3418052e-38
0.0557 0.042813439 0.0093688928 2.3418052e-38
0.0557 0.036020074 0.0088976836 2.3418052e-38
0.0557 0.032497395 0.011856746 2.3418052e-38
0.0557 0.021033559 0.0023910135 2.3418052e-38
0.0557 0.030144218 -0.00032304481 2.3418052e-38
0.0557 0.038463697 0.011381703 2.3418052e-38
0.0557 0.030555585 0.010821179 2.3418052e-38
0.0557 0.038645238 0.0087763686 2.3418052e-38
0.0557 0.041255396 0.014647981 2.3418052e-38
0.0557 0.043898497 0.0026630033 2.3418052e-38
0.0557 0.026611 0.0064969286 2.3418052e-38
0.0557 0.041362185 0.012154575 2.3418052e-38
0.0557 0.044537034 0.0088931331 2.3418052e-38
0.0557 0.041984629 0.017167281 2.3418052e-38
0.0557 0.026070245 0.0029092405 2.3418052e-38
0.0557 0.025391115 0.0021515628 2.3418052e-38
0.0557 0.039813001 0.011415085 2.3418052e-38
0.0557 0.032873429 0.002753489 2.3418052e-38
0.0557 0.03531697 0.0066052647 2.3418052e-38
0.0557 0.028202217 0.0035101501 2.3418052e-38
0.0557 0.042794775 0.0086144255 2.3418052e-38
0.0557 0.039125632 0.019230722 2.3418052e-38
0.0557 0.013774128 0.0017185762 2.3418052e-38
0.0557 0.027462386 0.0055565308 2.3418052e-38
0.0557 0.015414876 0.00058328715 2.3418052e-38
0.0557 0.028483946 0.0042882171 2.3418052e-38
0.0557 0.024846315 -0.00017780178 2.3418052e-38
0.0557 0.023931304 0.001869601 2.3418052e-38
0.0557 0.042217333 0.0067550889 2.3418052e-38
0.0557 0.015539284 0.0031644814 2.3418052e-38
0.0557 0.0263588 0.00091766304 2.3418052e-38
0.0557 0.039493624 0.017686157 2.3418052e-38
0.0557 0.022212354 0.0081904605 2.3418052e-38
0.0557 0.022046831 0.0021149167 2.3418052e-38
0.0557 0.039158735 0.01089741 2.3418052e-38
0.0557 0.041270599 0.018480051 2.3418052e-38
0.0557 0.030965904 0.0039338879 2.3418052e-38
0.0557 0.03515425 0.00032091775 2.3418052e-38
0.0557 0.035148073 0.0034048527 2.3418052e-38
0.0557 0.043841902 0.01066716 2.3418052e-38
0.0557 0.042053338 0.0083804671 2.3418052e-38
0.0557 0.042418767 0.020462524 2.3418052e-38
0.0557 0.017537607 0.0045147254 2.3418052e-38
0.0557 0.036302142 0.0013685031 2.3418052e-38
0.0557 0.012973686 0.0011128327 2.3418052e-38
0.0557 0.034239348 0.00016716846 2.3418052e-38
0.0557 0.034380455 0.0081828628 2.3418052e-38
0.0557 0.02785054 -0.00026541369 2.3418052e-38
0.0557 0.041458491 0.010288855 2.3418052e-38
0.0557 0.034317221 0.011431245 2.3418052e-38
0.0557 0.041837066 0.0157176 2.3418052e-38
0.0557 0.02575209 0.0096204877 2.3418052e-38
0.0557 0.022945477 0.0029724264 2.3418052e-38
0.0557 0.044517752 0.014281718 2.3418052e-38
0.0557 0.018376723 0.0045438814 2.3418052e-38
0.0557 0.041308273 0.0061123748 2.3418052e-38
0.0557 0.035581611 0.015070676 2.3418052e-38
0.0557 0.041152403 -0.0002590878 2.3418052e-38
0.0557 0.021019403 0.0015266975 2.3418052e-38
0.0557 0.042793773 0.0031491388 2.3418052e-38
0.0557 0.037815418 -0.00028964467 2.3418052e-38
0.0557 0.039408565 0.0064678462 2.3418052e-38
0.0557 0.030442188 0.0054690503 2.3418052e-38
0.0557 0.027130553 0.0098589612 2.3418052e-38
0.0557 0.043752126 0.0085607506 2.3418052e-38
0.0557 0.04492376 0.0081576239 2.3418052e-38
0.0557 0.036603283 0.014880291 2.3418052e-38
0.0557 0.01719537 0.00064624334 2.3418052e-38
0.0557 0.039716464 0.012634697 2.3418052e-38
0.0557 0.028125962 0.0063205683 2.3418052e-38
0.0557 0.021627435 0.00062282506 2.3418052e-38
0.0557 0.019989701 0.0034861157 2.3418052e-38
0.0557 0.042637236 0.0047521605 2.3418052e-38
0.0557 0.044348329 0.018194471 2.3418052e-38
0.0557 0.035201661 0.011979451 2.3418052e-38
0.0557 0.026580099 0.0089189988 2.3418052e-38
0.0557 0.029806701 0.0025721346 2.3418052e-38
0.0557 0.031102272 0.013995738 2.3418052e-38
0.0557 0.024935922 0.0039505884 2.3418052e-38
0.0557 0.036938988 0.010404849 2.3418052e-38
0.0557 0.033707019 0.01341867 2.3418052e-38
0.0557 0.04518386 0.019681597 2.3418052e-38
0.0557 0.036903799 0.011411485 2.3418052e-38
0.0557 0.040108759 0.01537706 2.3418052e-38
0.0557 0.034261096 0.0073863496 2.3418052e-38
0.0557 0.026055494 0.00012318596 2.3418052e-38
0.0557 0.02479141 0.0057735518 2.3418052e-38
0.0557 0.017626151 0.0027963731 2.3418052e-38
0.0557 0.023288975 0.021941775 2.3418052e-38
0.0557 0.014725534 0.021231366 2.3418052e-38
0.0557 0.0280702 0.019727848 2.3418052e-38
0.0557 0.028814483 0.019244697 2.3418052e-38
0.0557 0.011761483 0.011967218 2.3418052e-38
0.0557 0.012554712 0.0057728826 2.3418052e-38
0.0557 0.013779829 0.024266968 2.3418052e-38
0.0557 0.017462851 0.015496091 2.3418052e-38
0.0557 0.01830578 0.02287918 2.3418052e-38
0.0557 0.025088249 0.017170053 2.3418052e-38
0.0557 0.019531013 0.010994168 2.3418052e-38
0.0557 0.024874594 0.02245497 2.3418052e-38
0.0557 0.018074758 0.020333113 2.3418052e-38
0.0557 0.013983671 0.013043316 2.3418052e-38
0.0557 0.0099701444 0.0059489622 2.3418052e-38
0.0557 0.037033159 0.019808009 2.3418052e-38
0.0557 0.023188546 0.023683405 2.3418052e-38
0.0557 0.021792522 0.012852401 2.3418052e-38
0.0557 0.042298649 0.023782739 2.3418052e-38
0.0557 0.01365641 0.020945229 2.3418052e-38
0.0557 0.010834044 0.0090401536 2.3418052e-38
0.0557 0.010437719 0.0024949498 2.3418052e-38
0.0557 0.019833991 0.0094978055 2.3418052e-38
0.0557 0.020758795 0.017637195 2.3418052e-38
0.0557 0.029779054 0.016621832 2.3418052e-38
0.0557 0.038883336 0.021119535 2.3418052e-38
0.0557 0.023586681 0.015845774 2.3418052e-38
0.0557 0.011871299 0.020168021 2.3418052e-38
0.0557 0.026441801 0.021911092 2.3418052e-38
0.0557 0.029647207 0.014167882 2.3418052e-38
0.0557 0.034580451 0.021836497 2.3418052e-38
0.0557 0.018972414 0.014143418 2.3418052e-38
0.0557 0.018229602 0.011363336 2.3418052e-38
0.0557 0.028367737 0.022721305 2.3418052e-38
0.0557 0.036292776 0.02443199 2.3418052e-38
0.0557 0.028719053 0.022037826 2.3418052e-38
0.0557 0.01784518 0.016256886 2.3418052e-38
0.0557 0.028784279 0.016739475 2.3418052e-38
0.0557 0.01477899 0.008961482 2.3418052e-38
0.0557 0.02419414 0.023468502 2.3418052e-38
0.0557 0.026636137 0.022757452 2.3418052e-38
0.0557 0.015062142 0.017795125 2.3418052e-38
0.0557 0.035669502 0.018950609 2.3418052e-38
0.0557 0.019856732 0.017593333 2.3418052e-38
0.0557 0.021583892 0.019933546 2.3418052e-38
0.0557 0.023626897 0.022883454 2.3418052e-38
0.0557 0.017473588 0.022323631 2.3418052e-38
0.0557 0.016599745 0.022769062 2.3418052e-38
0.0557 0.015983537 0.024435669 2.3418052e-38
0.0557 0.019117922 0.0087579265 2.3418052e-38
0.0557 0.011242524 0.017936563 2.3418052e-38
0.0557 0.018853432 0.0060970425 2.3418052e-38
0.0557 0.027474601 0.015249318 2.3418052e-38
0.0557 0.0099196602 0.0094244741 2.3418052e-38
0.0557 0.023243396 0.015017357 2.3418052e-38
0.0557 0.024121791 0.01787113 2.3418052e-38
0.0557 0.011359045 0.012748108 2.3418052e-38
0.0557 0.031179894 0.024429258 2.3418052e-38
0.0557 0.024917055 0.014905895 2.3418052e-38
0.0557 0.028951528 0.023262443 2.3418052e-38
0.0557 0.034165751 0.022551978 2.3418052e-38
0.0557 0.023809379 0.014431685 2.3418052e-38
0.0557 0.033942003 0.020075373 2.3418052e-38
0.0557 0.019008677 0.022428291 2.3418052e-38
0.0557 0.032475043 0.022263229 2.3418052e-38
0.0557 0.021393126 0.018229047 2.3418052e-38
0.0557 0.024084916 0.021973658 2.3418052e-38
0.0557 0.010878855 0.023252245 2.3418052e-38
0.0557 0.018491602 0.018475667 2.3418052e-38
0.0557 0.032741394 0.017983895 2.3418052e-38
0.0557 0.034520522 0.020786906 2.3418052e-38
0.0557 0.031922136 0.019511813 2.3418052e-38
0.0557 0.013332379 0.010814381 2.3418052e-38
0.0557 0.022506028 0.017680548 2.3418052e-38
0.0557 0.031651173 0.022628848 2.3418052e-38
0.0557 0.037498422 0.023622908 2.3418052e-38
0.0557 0.012733186 0.012086822 2.3418052e-38
0.0557 0.028623961 0.021042692 2.3418052e-38
0.0557 0.016675834 0.021657873 2.3418052e-38
0.0557 0.011715336 0.0048468779 2.3418052e-38
0.0557 0.010279018 0.011584442 2.3418052e-38
0.0557 0.011052568 0.020991443 2.3418052e-38
0.0557 0.013617984 0.020093424 2.3418052e-38
0.0557 0.026460543 0.016521636 2.3418052e-38
0.0557 0.020091575 0.0084304027 2.3418052e-38
0.0557 0.012030637 0.019095093 2.3418052e-38
0.0557 0.021103403 0.023049155 2.3418052e-38
0.0557 0.021168366 0.01602317 2.3418052e-38
0.0557 0.013499172 0.014863832 2.3418052e-38
0.0557 0.021389998 0.010706859 2.3418052e-38
0.0557 0.030868793 0.023015456 2.3418052e-38
0.0557 0.027811345 0.016171781 2.3418052e-38
0.0557 0.021516761 0.0088281594 2.3418052e-38
0.0557 0.026995061 0.012265203 2.3418052e-38
0.0557 0.018510176 0.0068479776 2.3418052e-38
0.0557 0.018748557 0.023587806 2.3418052e-38
0.0557 0.01126564 0.0108156 2.3418052e-38
0.0557 0.026996978 0.019611342 2.3418052e-38
0.0557 0.038255893 0.019835453 2.3418052e-38
0.0557 0.014354471 0.016097806 2.3418052e-38
0.0557 0.014013333 0.0068275384 2.3418052e-38
0.0557 0.011790478 0.021378333 2.3418052e-38
0.0557 0.014406189 0.019804502 2.3418052e-38
0.0557 0.014112674 0.010093332 2.3418052e-38
0.0557 0.019955607 0.023486882 2.3418052e-38
0.0557 0.011194688 0.024640385 2.3418052e-38
0.0557 0.028176244 0.023462502 2.3418052e-38
0.0557 0.02778706 0.02090616 2.3418052e-38
0.0557 0.023354098 0.010426331 2.3418052e-38
0.0557 0.031850439 0.015609331 2.3418052e-38
0.0557 0.015303992 0.010877091 2.3418052e-38
0.0557 0.029535051 0.019411661 2.3418052e-38
0.0557 0.011797467 0.010124614 2.3418052e-38
0.0557 0.013208252 0.018522931 2.3418052e-38
0.0557 0.033221729 0.02030242 2.3418052e-38
0.0557 0.015783338 0.01708273 2.3418052e-38
0.0557 0.026073057 0.023438266 2.3418052e-38
0.0557 0.014188544 0.01396609 2.3418052e-38
0.0557 0.0390235 0.022592362 2.3418052e-38
0.0557 0.018813169 0.015214294 2.3418052e-38
0.0557 0.035530467 0.022152204 2.3418052e-38
0.0557 0.025259759 0.015706997 2.3418052e-38
0.0557 0.017227771 0.0068148975 2.3418052e-38
0.0557 0.024735777 0.018919703 2.3418052e-38
0.0557 0.01056408 0.016993418 2.3418052e-38
0.0557 0.013070359 0.023327248 2.3418052e-38
0.0557 0.030811317 0.020213449 2.3418052e-38
0.0557 0.023007192 0.019852197 2.3418052e-38
0.0557 0.035098799 0.022894695 2.3418052e-38
0.0557 0.017140437 0.010102499 2.3418052e-38
0.0557 0.01294493 0.0078256745 2.3418052e-38
0.0557 0.024039326 0.024262313 2.3418052e-38
0.0557 0.025042696 0.011834203 2.3418052e-38
0.0557 0.019294668 0.021254212 2.3418052e-38
0.0557 0.023217339 0.013718252 2.3418052e-38
0.0557 0.037084244 0.022803454 2.3418052e-38
0.0557 0.017913627 0.023686696 2.3418052e-38
0.0557 0.014024851 0.018603692 2.3418052e-38
0.0557 0.018835194 0.020041443 2.3418052e-38
0.0557 0.025669128 0.022126211 2.3418052e-38
0.0557 0.010352677 0.007347303 2.3418052e-38
0.0557 0.016678305 0.013363747 2.3418052e-38
0.0557 0.013273082 0.013717236 2.3418052e-38
0.0557 0.029760087 0.021664774 2.3418052e-38
0.0557 0.039990537 0.021277448 2.3418052e-38
0.0557 0.012506249 0.014277471 2.3418052e-38
0.0557 0.016883016 0.018927166 2.3418052e-38
0.0557 0.018623106 0.021586353 2.3418052e-38
0.0557 0.014708899 0.011483761 2.3418052e-38
0.0557 0.022381628 0.014036521 2.3418052e-38
0.0557 0.018171027 0.019194318 2.3418052e-38
0.0557 0.010332849 0.0159718 2.3418052e-38
0.0557 0.022352852 0.01667217 2.3418052e-38
0.0557 0.01790349 0.0089228684 2.3418052e-38
0.0557 0.021577021 0.017169058 2.3418052e-38
0.0557 0.015041817 0.015447721 2.3418052e-38
0.0557 0.022551512 0.021691987 2.3418052e-38
0.0557 0.036246236 0.022609042 2.3418052e-38
0.0557 0.022556575 0.02312511 2.3418052e-38
0.0557 0.015672315 0.023176124 2.3418052e-38
0.0557 0.031755451 0.023719644 2.3418052e-38
0.0557 0.01169569 0.023666503 2.3418052e-38
0.0557 0.03118493 0.019194854 2.3418052e-38
0.0557 0.015334195 0.0098349443 2.3418052e-38
0.0557 0.028709754 0.015530408 2.3418052e-38
0.0557 0.011675355 0.007433393 2.3418052e-38
0.0557 0.018965021 0.016493686 2.3418052e-38
0.0557 0.022628678 0.024372658 2.3418052e-38
0.0557 0.019865835 0.012883946 2.3418052e-38
0.0557 0.026213024 0.017562412 2.3418052e-38
0.0557 0.014329751 0.015008235 2.3418052e-38
0.0557 0.029490359 0.015178277 2.3418052e-38
0.0557 0.019816477 0.022716228 2.3418052e-38
0.0557 0.023878243 0.02014368 2.3418052e-38
0.0557 0.038821544 0.023739427 2.3418052e-38
0.0557 0.02029727 0.01695649 2.3418052e-38
0.0557 0.040027011 0.023683518 2.3418052e-38
0.0557 0.017794104 0.013329756 2.3418052e-38
0.0557 0.013194752 0.0052530253 2.3418052e-38
0.0557 0.020396406 0.022235529 2.3418052e-38
0.0557 0.022012876 0.015671043 2.3418052e-38
0.0557 0.03248914 0.0166129 2.3418052e-38
0.0557 0.03183974 0.020626377 2.3418052e-38
0.0557 0.017654413 0.012046454 2.3418052e-38
0.0557 0.01383014 0.0091464585 2.3418052e-38
0.0557 0.023674961 0.009615669 2.3418052e-38
0.0557 0.027536085 0.024142493 2.3418052e-38
0.0557 0.02998114 0.018640865 2.3418052e-38
0.0557 0.016837332 0.0079527209 2.3418052e-38
0.0557 0.011992451 0.024431426 2.3418052e-38
0.0557 0.032588415 0.02427453 2.3418052e-38
0.0557 0.02721763 0.021993438 2.3418052e-38
0.0557 0.01275871 0.016722385 2.3418052e-38
0.0557 0.019674869 0.0077571087 2.3418052e-38
0.0557 0.015116502 0.0040112571 2.3418052e-38
0.0557 0.010789932 0.0049200007 2.3418052e-38
0.0557 0.025880974 0.015338379 2.3418052e-38
0.0557 0.017939921 0.021175765 2.3418052e-38
0.0557 0.016292302 0.01089968 2.3418052e-38
0.0557 0.011233201 0.00094533846 2.3418052e-38
0.0557 0.010797706 0.00575478 2.3418052e-38
0.0557 0.011289841 0.0021675145 2.3418052e-38
0.0557 0.022654727 0.011250405 2.3418052e-38
0.0557 0.012916932 0.012999719 2.3418052e-38
0.0557 0.016092777 0.014883846 2.3418052e-38
0.0557 0.012151456 0.018204784 2.3418052e-38
0.0557 0.028453715 0.01810257 2.3418052e-38
0.0557 0.023006141 0.012652129 2.3418052e-38
0.0557 0.03482797 0.02388083 2.3418052e-38
0.0557 0.018005263 0.010182 2.3418052e-38
0.0557 0.027782636 0.013154001 2.3418052e-38
0.0557 0.023189887 0.011957804 2.3418052e-38
0.0557 0.025632588 0.016555287 2.3418052e-38
0.0557 0.01629843 0.01775917 2.3418052e-38
0.0557 0.032615647 0.021154393 2.3418052e-38
0.0557 0.01048289 0.0082852524 2.3418052e-38
0.0557 0.014077147 0.023235468 2.3418052e-38
0.0557 0.035140757 0.01832406 2.3418052e-38
0.0557 0.037000794 0.021959424 2.3418052e-38
0.0557 0.020242102 0.02150235 2.3418052e-38
0.0557 0.026367903 0.018996887 2.3418052e-38
0.0557 0.01474349 0.019088408 2.3418052e-38
0.0557 0.017724412 0.014654773 2.3418052e-38
0.0557 0.027487487 0.017632281 2.3418052e-38
0.0557 0.029977093 0.015780365 2.3418052e-38
0.0557 0.015157371 0.0079224939 2.3418052e-38
0.0557 0.026570633 0.013182648 2.3418052e-38
0.0557 0.025092361 0.023331827 2.3418052e-38
0.0557 0.025546722 0.018786352 2.3418052e-38
0.0557 0.010380903 0.010819014 2.3418052e-38
0.0557 0.014684311 0.0060132286 2.3418052e-38
0.0557 0.017289972 0.020653749 2.3418052e-38
0.0557 0.015795903 0.019253159 2.3418052e-38
0.0557 0.015849097 0.01594048 2.3418052e-38
0.0557 0.010215033 0.0016823836 2.3418052e-38
0.0557 0.021895468 0.011751386 2.3418052e-38
0.0557 0.016619692 0.0045050411 2.3418052e-38
0.0557 0.016841618 0.012499851 2.3418052e-38
0.0557 0.026814459 0.023726799 2.3418052e-38
0.0557 0.015807459 0.0091097122 2.3418052e-38
0.0557 0.013014439 0.0068416493 2.3418052e-38
0.0557 0.031441439 0.017337456 2.3418052e-38
0.0557 0.01091203 0.0039656204 2.3418052e-38
0.0557 0.029621435 0.022643084 2.3418052e-38
0.0557 0.025525568 0.010786833 2.3418052e-38
0.0557 0.041566767 0.023461623 2.3418052e-38
0.0557 0.018260727 0.0075315624 2.3418052e-38
0.0557 0.020272415 0.010605203 2.3418052e-38
0.0557 0.021729091 0.01493613 2.3418052e-38
0.0557 0.010043872 0.022486955 2.3418052e-38
0.0557 0.015673883 0.02204456 2.3418052e-38
0.0557 0.010509981 0.021680642 2.3418052e-38
0.0557 0.015165789 0.016279867 2.3418052e-38
0.0557 0.020757515 0.0089152958 2.3418052e-38
0.0557 0.032502275 0.023075029 2.3418052e-38
0.0557 0.032875128 0.018823991 2.3418052e-38
0.0557 0.03064994 0.017453941 2.3418052e-38
0.0557 0.020076741 0.014331574 2.3418052e-38
0.0557 0.023865078 0.020926293 2.3418052e-38
0.0557 0.034068201 0.017666366 2.3418052e-38
0.0557 0.015400072 0.020762179 2.3418052e-38
0.0557 0.040656123 0.024195028 2.3418052e-38
0.0557 0.011191475 0.016033731 2.3418052e-38
0.0557 0.019547064 0.019343264 2.3418052e-38
0.0557 0.036268666 0.020196067 2.3418052e-38
0.0557 0.025527675 0.014098627 2.3418052e-38
0.0557 0.018415859 0.012259242 2.3418052e-38
0.0557 0.012843488 0.017762966 2.3418052e-38
0.0557 0.030775761 0.018290758 2.3418052e-38
0.0557 0.026652489 0.018253913 2.3418052e-38
0.0557 0.020582112 0.012252485 2.3418052e-38
0.0557 0.013531724 0.0061867274 2.3418052e-38
0.0557 0.016559955 0.017008213 2.3418052e-38
0.0557 0.021145152 0.011469528 2.3418052e-38
0.0557 0.020877518 0.0078263683 2.3418052e-38
0.0557 0.013410933 0.021706849 2.3418052e-38
0.0557 0.024031645 0.011472077 2.3418052e-38
0.0557 0.020841377 0.0099846078 2.3418052e-38
0.0557 0.019120038 0.011735736 2.3418052e-38
0.0557 0.033725634 0.023511035 2.3418052e-38
0.0557 0.016250279 0.020690316 2.3418052e-38
0.0557 0.014754942 0.024055148 2.3418052e-38
0.0557 0.01880501 0.010398257 2.3418052e-38
0.0557 0.016694276 0.0056668934 2.3418052e-38
0.0557 0.015660103 0.013530922 2.3418052e-38
0.0557 0.022113223 0.022348583 2.3418052e-38
0.0557 0.024814829 0.012931043 2.3418052e-38
0.0557 0.012766916 0.019946182 2.3418052e-38
0.0557 0.031204637 0.01498526 2.3418052e-38
0.0557 0.011241571 0.015091227 2.3418052e-38
0.0557 0.024289859 0.010530668 2.3418052e-38
0.0557 0.019981246 0.0070595834 2.3418052e-38
0.0557 0.011894894 0.0040834094 2.3418052e-38
0.0557 0.027517006 0.018398065 2.3418052e-38
0.0557 0.012691726 0.010396074 2.3418052e-38
0.0557 0.037813887 0.022368895 2.3418052e-38
0.0557 0.010787686 0.013935326 2.3418052e-38
0.0557 0.03107284 0.020892994 2.3418052e-38
0.0557 0.026439628 0.020216107 2.3418052e-38
0.0557 0.028169801 0.013824648 2.3418052e-38
0.0557 0.012824737 0.020936178 2.3418052e-38
0.0557 0.03322782 0.016318819 2.3418052e-38
0.0557 0.0121438 0.022330642 2.3418052e-38
0.0557 0.014852813 0.013179033 2.3418052e-38
0.0557 0.012687053 0.015976075 2.3418052e-38
0.0557 0.030313788 0.023772048 2.3418052e-38
0.0557 0.01275207 0.015181572 2.3418052e-38
0.0557 0.014141615 0.0083860122 2.3418052e-38
0.0557 0.022167474 0.018896401 2.3418052e-38
0.0557 0.012389863 0.003464239 2.3418052e-38
0.0557 0.034002371 0.018537411 2.3418052e-38
0.0557 0.010640616 0.018442379 2.3418052e-38
0.0557 0.036193147 0.021701446 2.3418052e-38
0.0557 0.024395501 0.015494938 2.3418052e-38
0.0557 0.01620122 0.0065636435 2.3418052e-38
0.0557 0.027223865 0.014380039 2.3418052e-38
0.0557 0.024108279 0.013641197 2.3418052e-38
0.0557 0.036315661 0.023485374 2.3418052e-38
0.0557 0.030030688 0.024648262 2.3418052e-38
0.0557 0.016656112 0.015856799 2.3418052e-38
0.0557 0.021520957 0.020731179 2.3418052e-38
0.0557 0.011404482 0.0082256505 2.3418052e-38
0.0557 0.022963446 0.018429503 2.3418052e-38
0.0557 0.011728292 0.013708371 2.3418052e-38
0.0557 0.015998892 0.0081290789 2.3418052e-38
0.0557 0.013926797 0.012309395 2.3418052e-38
0.0557 0.0098155057 0.017390503 2.3418052e-38
0.0557 0.025807666 0.011650405 2.3418052e-38
0.0557 0.043542169 0.024017803 2.3418052e-38
0.0557 0.023661753 0.019369854 2.3418052e-38
0.0557 0.013830123 0.01141668 2.3418052e-38
0.0557 0.017840669 0.0053922683 2.3418052e-38
0.0557 0.018402448 0.017537503 2.3418052e-38
0.0557 0.013289104 0.0098062782 2.3418052e-38
0.0557 0.01218072 0.0065249405 2.3418052e-38
0.0557 0.020551719 0.018602198 2.3418052e-38
0.0557 0.034515213 0.01923034 2.3418052e-38
0.0557 0.010892797 0.012059136 2.3418052e-38
0.0557 0.015121116 0.012389759 2.3418052e-38
0.0557 0.019716667 0.018366363 2.3418052e-38
0.0557 0.024111394 0.016456384 2.3418052e-38
0.0557 0.040909331 0.022880584 2.3418052e-38
0.0557 0.025404414 0.021345332 2.3418052e-38
0.0557 0.010444707 0.00087756151 2.3418052e-38
0.0557 0.029143246 0.017862897 2.3418052e-38
0.0557 0.020060791 0.020163391 2.3418052e-38
0.0557 0.030406529 0.014424132 2.3418052e-38
0.0557 0.014156919 0.022398459 2.3418052e-38
0.0557 0.010003017 0.0040774238 2.3418052e-38
0.0557 0.023014169 0.016982703 2.3418052e-38
0.0557 0.03323593 0.021764033 2.3418052e-38
0.0557 0.031027479 0.016352458 2.3418052e-38
0.0557 0.033324741 0.022759933 2.3418052e-38
0.0557 0.03789144 0.02068908 2.3418052e-38
0.0557 0.022750618 0.0088747786 2.3418052e-38
0.0557 0.017692167 0.008133295 2.3418052e-38
0.0557 0.017010385 0.024096288 2.3418052e-38
0.0557 0.018994782 0.013191929 2.3418052e-38
0.0557 0.015039927 0.022524973 2.3418052e-38
0.0557 0.025531031 0.013257688 2.3418052e-38
0.0557 0.012564699 0.0085916072 2.3418052e-38
0.0557 0.011947664 0.011135749 2.3418052e-38
0.0557 0.023089038 0.020627854 2.3418052e-38
0.0557 0.010303366 0.012539288 2.3418052e-38
0.0557 0.017258953 0.011424759 2.3418052e-38
0.0557 0.029809747 0.020265277 2.3418052e-38
0.0557 0.022147177 0.010022572 2.3418052e-38
0.0557 0.012628688 0.0024692474 2.3418052e-38
0.0557 0.021031715 0.021573162 2.3418052e-38
0.0557 0.0098836143 0.0066936202 2.3418052e-38
0.0557 0.016047461 0.010020069 2.3418052e-38
0.0557 0.021811804 0.021593083 2.3418052e-38
0.0557 0.029090706 0.024345862 2.3418052e-38
0.0557 0.010838007 0.019260794 2.3418052e-38
0.0557 0.040815048 0.021959746 2.3418052e-38
0.0557 0.020256717 0.01139564 2.3418052e-38
0.0557 0.020806298 0.013050679 2.3418052e-38
0.0557 0.013487649 0.016301533 2.3418052e-38
0.0557 0.024704752 0.020026978 2.3418052e-38
0.0557 0.030425424 0.022121275 2.3418052e-38
0.0557 0.020985104 0.013777761 2.3418052e-38
0.0557 0.025510617 0.019650461 2.3418052e-38
0.0557 0.039996844 0.022278802 2.3418052e-38
0.0557 0.011879083 0.0091389222 2.3418052e-38
0.0557 0.014524127 0.0073409374 2.3418052e-38
0.0557 0.011524854 0.00335166 2.3418052e-38
0.0557 0.031720452 0.018607879 2.3418052e-38
0.0557 0.014761448 0.0048227645 2.3418052e-38
0.0557 0.025880983 0.024641024 2.3418052e-38
0.0557 0.038142666 0.021503499 2.3418052e-38
0.0557 0.017743513 0.018398574 2.3418052e-38
0.0557 0.016950201 0.014726212 2.3418052e-38
0.0557 0.013636808 0.017387083 2.3418052e-38
0.0557 0.017340867 0.019544661 2.3418052e-38
0.0557 0.0130101 0.02414427 2.3418052e-38
0.0557 0.01186054 0.0014454948 2.3418052e-38
0.0557 0.038246509 0.024224222 2.3418052e-38
0.0557 0.03491018 0.017512197 2.3418052e-38
0.0557 0.0098895291 0.014449129 2.3418052e-38
0.0557 0.026460262 0.014728599 2.3418052e-38
0.0557 0.032009415 0.021709802 2.3418052e-38
0.0557 0.028007144 0.016983498 2.3418052e-38
0.0557 0.013935874 0.0048229457 2.3418052e-38
0.0557 0.011446391 0.0062310025 2.3418052e-38
0.0557 0.035329297 0.019637557 2.3418052e-38
0.0557 0.012015806 0.015503843 2.3418052e-38
0.0557 0.015906971 0.018466825 2.3418052e-38
0.0557 0.02037503 0.016152693 2.3418052e-38
0.0557 0.022490365 0.014838335 2.3418052e-38
0.0557 0.011503777 0.016713021 2.3418052e-38
0.0557 0.016280929 0.011709818 2.3418052e-38
0.0557 0.013836364 0.0036107874 2.3418052e-38
0.0557 0.015251615 0.019783128 2.3418052e-38
0.0557 0.028644335 0.014489083 2.3418052e-38
0.0557 0.028017817 0.021701321 2.3418052e-38
0.0557 0.016007913 0.0049644746 2.3418052e-38
0.0557 0.016739208 0.0095045203 2.3418052e-38
0.0557 0.029025177 0.020201027 2.3418052e-38
0.0557 0.035873391 0.020970501 2.3418052e-38
0.0557 0.026644887 0.020929778 2.3418052e-38
0.0557 0.015302994 0.0065786052 2.3418052e-38
0.0557 0.019923808 0.015417847 2.3418052e-38
0.037993953 0.045200001 0.00048356669 2.3418052e-38
0.036299549 0.045200001 0.009639333 2.3418052e-38
0.044965509 0.045200001 0.0038347538 2.3418052e-38
0.02833743 0.045200001 0.0014860848 2.3418052e-38
0.041897938 0.045200001 0.0074111889 2.3418052e-38
0.021893458 0.045200001 0.012903469 2.3418052e-38
0.041127779 0.045200001 0.0076771467 2.3418052e-38
0.049809236 0.045200001 0.0008623933 2.3418052e-38
0.025651749 0.045200001 0.01944383 2.3418052e-38
0.054809805 0.045200001 -0.00016876332 2.3418052e-38
0.025002019 0.045200001 0.0020366227 2.3418052e-38
0.02705016 0.045200001 0.0051378673 2.3418052e-38
0.026048549 0.045200001 0.017249411 2.3418052e-38
0.021451751 0.045200001 0.018468544 2.3418052e-38
0.046983667 0.045200001 0.0023716902 2.3418052e-38
0.022891669 0.045200001 0.017616319 2.3418052e-38
0.040410087 0.045200001 0.0015570829 2.3418052e-38
0.020374833 0.045200001 0.0059603499 2.3418052e-38
0.02374308 0.045200001 0.0079570226 2.3418052e-38
0.031381294 0.045200001 0.011791712 2.3418052e-38
0.039587475 0.045200001 0.01062457 2.3418052e-38
0.027641352 0.045200001 0.015362671 2.3418052e-38
0.024196077 0.045200001 0.00662405 2.3418052e-38
0.026192373 0.045200001 0.0049711289 2.3418052e-38
0.050699521 0.045200001 0.0014621149 2.3418052e-38
0.034527794 0.045200001 0.010779561 2.3418052e-38
0.036525723 0.045200001 0.011607335 2.3418052e-38
0.04127121 0.045200001 -0.00015420947 2.3418052e-38
0.03136041 0.045200001 0.013637098 2.3418052e-38
0.022548717 0.045200001 0.0051746219 2.3418052e-38
0.021122275 0.045200001 0.019885931 2.3418052e-38
0.024726775 0.045200001 0.01144123 2.3418052e-38
0.048959874 0.045200001 0.0022809478 2.3418052e-38
0.028860414 0.045200001 0.0027125422 2.3418052e-38
0.031584162 0.045200001 0.0070697493 2.3418052e-38
0.031430867 0.045200001 0.0054251645 2.3418052e-38
0.030144421 0.045200001 0.010372111 2.3418052e-38
0.033265498 0.045200001 0.013262133 2.3418052e-38
0.028227285 0.045200001 0.010795814 2.3418052e-38
0.027193362 0.045200001 0.016173095 2.3418052e-38
0.025485711 0.045200001 0.016179683 2.3418052e-38
0.038346324 0.045200001 0.010601625 2.3418052e-38
0.025934162 0.045200001 0.014186297 2.3418052e-38
0.022261072 0.045200001 0.014305688 2.3418052e-38
0.030988397 0.045200001 0.012541385 2.3418052e-38
0.042450614 0.045200001 0.0013073517 2.3418052e-38
0.039868772 0.045200001 0.0028738983 2.3418052e-38
0.026168045 0.045200001 0.0026249725 2.3418052e-38
0.039205387 0.045200001 0.0081304973 2.3418052e-38
0.052096464 0.045200001 0.000602293 2.3418052e-38
0.049038406 0.045200001 0.00018316587 2.3418052e-38
0.047768142 0.045200001 0.0016775938 2.3418052e-38
0.021401536 0.045200001 0.017131153 2.3418052e-38
0.021314224 0.045200001 0.0065664663 2.3418052e-38
0.02721829 0.045200001 0.0066852914 2.3418052e-38
0.043350574 0.045200001 0.0062940693 2.3418052e-38
0.022779679 0.045200001 0.0014899746 2.3418052e-38
0.043396682 0.045200001 0.0071410099 2.3418052e-38
0.041705798 0.045200001 0.0017842582 2.3418052e-38
0.054089896 0.045200001 -1.5118625e-05 2.3418052e-38
0.034034517 0.045200001 0.014519463 2.3418052e-38
0.029396094 0.045200001 0.013885565 2.3418052e-38
0.023524815 0.045200001 0.01687664 2.3418052e-38
0.042333219 0.045200001 0.0080503756 2.3418052e-38
0.039994169 0.045200001 0.0080434987 2.3418052e-38
0.040084641 0.045200001 -0.00025388488 2.3418052e-38
0.032980368 0.045200001 0.015355955 2.3418052e-38
0.027595265 0.045200001 0.003066839 2.3418052e-38
0.032777462 0.045200001 0.014150288 2.3418052e-38
0.032515138 0.045200001 0.001464619 2.3418052e-38
0.045395486 0.045200001 0.0032102512 2.3418052e-38
0.036345679 0.045200001 0.0067306668 2.3418052e-38
0.033524886 0.045200001 0.0096228989 2.3418052e-38
0.021199422 0.045200001 0.0075263237 2.3418052e-38
0.023253523 0.045200001 0.0044254749 2.3418052e-38
0.03186645 0.045200001 0.00067715923 2.3418052e-38
0.035703983 0.045200001 -0.00026433007 2.3418052e-38
0.030850885 0.045200001 0.0038362339 2.3418052e-38
0.034341846 0.045200001 0.0047464953 2.3418052e-38
0.020376578 0.045200001 0.0077897892 2.3418052e-38
0.040131759 0.045200001 0.0067061945 2.3418052e-38
0.023852022 0.045200001 0.018557377 2.3418052e-38
0.051527388 0.045200001 0.0012336364 2.3418052e-38
0.052871175 0.045200001 0.001592093 2.3418052e-38
0.02157349 0.045200001 0.0016396822 2.3418052e-38
0.025366202 0.045200001 0.010991503 2.3418052e-38
0.024593169 0.045200001 0.0074109607 2.3418052e-38
0.036124039 0.045200001 0.00057507708 2.3418052e-38
0.024841111 0.045200001 0.013980829 2.3418052e-38
0.038632929 0.045200001 0.0010720495 2.3418052e-38
0.044043165 0.045200001 0.0047491165 2.3418052e-38
0.046446051 0.045200001 0.00097503216 2.3418052e-38
0.031699557 0.045200001 0.010697166 2.3418052e-38
0.034549009 0.045200001 0.012265455 2.3418052e-38
0.035890229 0.045200001 0.010473765 2.3418052e-38
0.041977406 0.045200001 0.0035604609 2.3418052e-38
0.043344688 0.045200001 0.0038420558 2.3418052e-38
0.022861879 0.045200001 0.008998109 2.3418052e-38
0.038892735 0.045200001 0.011395588 2.3418052e-38
0.030286174 0.045200001 0.0175958 2.3418052e-38
0.031944256 0.045200001 0.015521945 2.3418052e-38
0.025526216 0.045200001 0.015368684 2.3418052e-38
0.03095486 0.045200001 0.00082169537 2.3418052e-38
0.037944712 0.045200001 0.0056771459 2.3418052e-38
0.027606409 0.045200001 0.0084833363 2.3418052e-38
0.028226379 0.045200001 0.0146871 2.3418052e-38
0.032004446 0.045200001 0.0099369111 2.3418052e-38
0.029613618 0.045200001 0.0075555975 2.3418052e-38
0.02511044 0.045200001 0.019989643 2.3418052e-38
0.027681673 0.045200001 0.013804138 2.3418052e-38
0.034840755 0.045200001 0.0059658559 2.3418052e-38
0.035048142 0.045200001 0.0044260439 2.3418052e-38
0.027952116 0.045200001 0.017865101 2.3418052e-38
0.03326606 0.045200001 0.00094331213 2.3418052e-38
0.022615613 0.045200001 0.0034924147 2.3418052e-38
0.028837968 0.045200001 0.0085402885 2.3418052e-38
0.021717103 0.045200001 0.0049800412 2.3418052e-38
0.040451795 0.045200001 0.00038532639 2.3418052e-38
0.028971445 0.045200001 0.0070191431 2.3418052e-38
0.033700667 0.045200001 0.012606314 2.3418052e-38
0.025323343 0.045200001 0.0062717078 2.3418052e-38
0.026361242 0.045200001 0.020099014 2.3418052e-38
0.027342448 0.045200001 0.018365446 2.3418052e-38
0.026740972 0.045200001 0.010534542 2.3418052e-38
0.036851119 0.045200001 -0.00019905994 2.3418052e-38
0.033917893 0.045200001 0.00041085391 2.3418052e-38
0.036900293 0.045200001 0.0025203626 2.3418052e-38
0.023942998 0.045200001 0.021426048 2.3418052e-38
0.020793896 0.045200001 0.0016798554 2.3418052e-38
0.041049927 0.045200001 0.00098613685 2.3418052e-38
0.049885839 0.045200001 0.0016933896 2.3418052e-38
0.022887729 0.045200001 0.0026444637 2.3418052e-38
0.023894357 0.045200001 0.0020751755 2.3418052e-38
0.034387343 0.045200001 0.0095225228 2.3418052e-38
0.030111641 0.045200001 0.0062930482 2.3418052e-38
0.033258371 0.045200001 0.011925917 2.3418052e-38
0.023960782 0.045200001 0.0099903122 2.3418052e-38
0.03247897 0.045200001 0.0082527883 2.3418052e-38
0.027756391 0.045200001 -0.00011925661 2.3418052e-38
0.02366603 0.045200001 0.020012055 2.3418052e-38
0.029211044 0.045200001 9.9284895e-05 2.3418052e-38
0.034043197 0.045200001 0.0079170233 2.3418052e-38
0.028822608 0.045200001 0.011738677 2.3418052e-38
0.026540935 0.045200001 0.018229712 2.3418052e-38
0.030233726 0.045200001 0.013762461 2.3418052e-38
0.041654151 0.045200001 0.0025783831 2.3418052e-38
0.021090787 0.045200001 0.013182417 2.3418052e-38
0.039707575 0.045200001 0.0098863496 2.3418052e-38
0.02346584 0.045200001 0.011714973 2.3418052e-38
0.027103266 0.045200001 0.01232983 2.3418052e-38
0.042365432 0.045200001 0.0023341628 2.3418052e-38
0.030274585 0.045200001 0.016513038 2.3418052e-38
0.022966789 0.045200001 0.014536201 2.3418052e-38
0.034864515 0.045200001 0.0075976509 2.3418052e-38
0.044054471 0.045200001 0.001661716 2.3418052e-38
0.027898356 0.045200001 0.0076672528 2.3418052e-38
0.021015538 0.045200001 0.022882808 2.3418052e-38
0.042640332 0.045200001 0.0048739663 2.3418052e-38
0.021778988 0.045200001 0.0038914026 2.3418052e-38
0.023271961 0.045200001 0.0096467584 2.3418052e-38
0.02675846 0.045200001 0.013447666 2.3418052e-38
0.02439172 0.045200001 0.015025163 2.3418052e-38
0.024230566 0.045200001 0.0014223553 2.3418052e-38
0.03005323 0.045200001 0.0033677495 2.3418052e-38
0.036847956 0.045200001 0.0017345082 2.3418052e-38
0.030310009 0.045200001 0.012071446 2.3418052e-38
0.0325487 0.045200001 0.0069653266 2.3418052e-38
0.034921683 0.045200001 0.001956234 2.3418052e-38
0.035454541 0.045200001 0.0054527111 2.3418052e-38
0.023970684 0.045200001 0.00011882964 2.3418052e-38
0.031381253 0.045200001 0.01447447 2.3418052e-38
0.022627797 0.045200001 0.0081060436 2.3418052e-38
0.031274278 0.045200001 0.0088068107 2.3418052e-38
0.028578615 0.045200001 0.018401474 2.3418052e-38
0.033421978 0.045200001 0.010505115 2.3418052e-38
0.022710647 0.045200001 0.016680447 2.3418052e-38
0.037119295 0.045200001 0.010150714 2.3418052e-38
0.033220112 0.045200001 0.0045517739 2.3418052e-38
0.0224637 0.045200001 0.0043229191 2.3418052e-38
0.020644385 0.045200001 0.015405242 2.3418052e-38
0.031158086 0.045200001 0.0020009242 2.3418052e-38
0.044519063 0.045200001 0.0031244569 2.3418052e-38
0.038879201 0.045200001 0.01001338 2.3418052e-38
0.045908213 0.045200001 0.0039161723 2.3418052e-38
0.0361747 0.045200001 0.0057740249 2.3418052e-38
0.032417685 0.045200001 0.003382948 2.3418052e-38
0.034833908 0.045200001 0.00059165328 2.3418052e-38
0.039667409 0.045200001 0.0050130039 2.3418052e-38
0.023633823 0.045200001 0.010745549 2.3418052e-38
0.027970949 0.045200001 0.0064505516 2.3418052e-38
0.041544881 0.045200001 0.0060411724 2.3418052e-38
0.035503577 0.045200001 0.01226315 2.3418052e-38
0.032074232 0.045200001 0.012906609 2.3418052e-38
0.025166983 0.045200001 0.020973859 2.3418052e-38
0.030016668 0.045200001 0.0082552647 2.3418052e-38
0.029605323 0.045200001 0.017206075 2.3418052e-38
0.034798734 0.045200001 0.011586178 2.3418052e-38
0.028051585 0.045200001 0.004542761 2.3418052e-38
