# .PCD v0.7 - Point Cloud Data file format
VERSION 0.7
FIELDS x y z rgb
SIZE 4 4 4 4
TYPE F F F F
COUNT 1 1 1 1
WIDTH 1024
HEIGHT 1
VIEWPOINT 0 0 0 1 0 0 0
POINTS 1024
DATA ascii
0.080430582 0.037794303 0.018901102 9.219563e-39
0.071875237 0.047994915 0.019999743 9.219563e-39
0.072663851 0.047054641 0.029586138 9.219563e-39
0.070197128 0.049995735 0.0053867386 9.219563e-39
0.076940387 0.041955687 0.024624677 9.219563e-39
0.071509674 0.048430774 0.0252579 9.219563e-39
0.077623822 0.041140832 0.022054004 9.219563e-39
0.068351164 0.052196685 0.01489364 9.219563e-39
0.082140125 0.035756003 0.02339913 9.219563e-39
0.070731848 0.049358182 0.018190017 9.219563e-39
0.072162867 0.047651969 0.023930477 9.219563e-39
0.074738495 0.044581022 0.021894692 9.219563e-39
0.070102498 0.050108563 0.0089035416 9.219563e-39
0.088436805 0.028248426 0.027261203 9.219563e-39
0.069919482 0.050326772 0.011823028 9.219563e-39
0.07103543 0.048996218 0.012929803 9.219563e-39
0.069404133 0.050941225 0.015828717 9.219563e-39
0.068572931 0.051932275 0.010605483 9.219563e-39
0.08001294 0.038292266 0.017815592 9.219563e-39
0.072803192 0.046888504 0.010139873 9.219563e-39
0.072401784 0.047367103 0.025154741 9.219563e-39
0.071060747 0.048966035 0.021522628 9.219563e-39
0.067586362 0.053108566 0.012377411 9.219563e-39
0.075707614 0.043425541 0.018723724 9.219563e-39
0.068637267 0.051855564 0.029091418 9.219563e-39
0.066187702 0.054776199 0.013665095 9.219563e-39
0.068032071 0.052577149 0.023437526 9.219563e-39
0.078829475 0.039703317 0.029561356 9.219563e-39
0.074797288 0.044510923 0.010814893 9.219563e-39
0.07312122 0.046509311 0.011311539 9.219563e-39
0.071207151 0.048791476 0.029602872 9.219563e-39
0.070332401 0.049834449 0.0231381 9.219563e-39
0.071143672 0.048867162 0.024203349 9.219563e-39
0.072401002 0.047368035 0.018743975 9.219563e-39
0.066746004 0.054110531 0.020692971 9.219563e-39
0.080763429 0.037397452 0.029929524 9.219563e-39
0.086953484 0.030016998 0.029714938 9.219563e-39
0.073975466 0.045490794 0.015202379 9.219563e-39
0.079222381 0.039234854 0.022103766 9.219563e-39
0.070312455 0.049858231 0.020819863 9.219563e-39
0.069799237 0.050470144 0.019830499 9.219563e-39
0.076637626 0.042316679 0.019239085 9.219563e-39
0.089529186 0.026945967 0.029129734 9.219563e-39
0.077457629 0.041338984 0.025831262 9.219563e-39
0.078870803 0.039654043 0.025398418 9.219563e-39
0.076186888 0.042854093 0.023782576 9.219563e-39
0.066317521 0.054621417 0.016031971 9.219563e-39
0.070273645 0.049904499 0.013613111 9.219563e-39
0.071909301 0.047954295 0.0094422586 9.219563e-39
0.06778001 0.052877679 0.0063511212 9.219563e-39
0.079128079 0.039347295 0.017311575 9.219563e-39
0.066515908 0.054384876 0.027689643 9.219563e-39
0.075390592 0.043803521 0.027611818 9.219563e-39
0.084864236 0.032508031 0.024848208 9.219563e-39
0.073096059 0.046539318 0.017084891 9.219563e-39
0.07103087 0.049001649 0.01969775 9.219563e-39
0.073474586 0.046087991 0.021976382 9.219563e-39
0.088175468 0.028560022 0.029442957 9.219563e-39
0.07517615 0.044059206 0.01281633 9.219563e-39
0.083675206 0.033925716 0.025538566 9.219563e-39
0.076935537 0.041961472 0.015054386 9.219563e-39
0.068033732 0.052575167 0.019608507 9.219563e-39
0.090426192 0.025876468 0.028724937 9.219563e-39
0.075221993 0.044004548 0.0164684 9.219563e-39
0.071074285 0.048949894 0.027375719 9.219563e-39
0.073383346 0.046196777 0.023387 9.219563e-39
0.06685707 0.053978112 0.024619281 9.219563e-39
0.067342155 0.053399742 0.0085381949 9.219563e-39
0.078318544 0.04031251 0.024574237 9.219563e-39
0.066452496 0.054460488 0.025679786 9.219563e-39
0.071060121 0.048966773 0.0073733157 9.219563e-39
0.077996932 0.040695969 0.028688168 9.219563e-39
0.074303694 0.045099441 0.013409873 9.219563e-39
0.071973287 0.047878001 0.027227338 9.219563e-39
0.080811203 0.037340492 0.022021806 9.219563e-39
0.070336275 0.049829829 0.010051658 9.219563e-39
0.073992074 0.04547099 0.016496245 9.219563e-39
0.077555858 0.041221861 0.019005859 9.219563e-39
0.083909832 0.033645965 0.023721643 9.219563e-39
0.083304495 0.034367714 0.021117274 9.219563e-39
0.069276109 0.051093869 0.0097508943 9.219563e-39
0.071831852 0.048046637 0.021283036 9.219563e-39
0.066953734 0.053862859 0.0067127366 9.219563e-39
0.068384208 0.05215729 0.026791368 9.219563e-39
0.067346841 0.053394154 0.016299635 9.219563e-39
0.079353906 0.039078034 0.028496873 9.219563e-39
0.084977999 0.032372382 0.023360839 9.219563e-39
0.077870108 0.040847175 0.026989846 9.219563e-39
0.085079052 0.032251902 0.027722502 9.219563e-39
0.066312149 0.054627825 0.023616413 9.219563e-39
0.074869767 0.044424508 0.026273504 9.219563e-39
0.07541991 0.04376857 0.01500401 9.219563e-39
0.078369223 0.040252082 0.017937211 9.219563e-39
0.066071451 0.054914806 0.021387275 9.219563e-39
0.074525736 0.044834696 0.02050152 9.219563e-39
0.071429551 0.048526302 0.017232256 9.219563e-39
0.067332983 0.053410679 0.026089102 9.219563e-39
0.068709716 0.05176919 0.020685639 9.219563e-39
0.072274037 0.047519419 0.015425601 9.219563e-39
0.080909468 0.037223324 0.028275315 9.219563e-39
0.073421992 0.046150699 0.018653862 9.219563e-39
0.083485223 0.034152236 0.029512199 9.219563e-39
0.068716034 0.051761653 0.0057785008 9.219563e-39
0.074274398 0.045134369 0.019273642 9.219563e-39
0.067225285 0.053539082 0.019701727 9.219563e-39
0.068921976 0.051516108 0.011670149 9.219563e-39
0.072559804 0.047178697 0.012681073 9.219563e-39
0.079082608 0.039401509 0.018789122 9.219563e-39
0.074164256 0.045265697 0.0095899198 9.219563e-39
0.07479801 0.044510067 0.017825739 9.219563e-39
0.076937333 0.041959338 0.017452559 9.219563e-39
0.069166847 0.05122415 0.0037285169 9.219563e-39
0.073212229 0.046400804 0.015688417 9.219563e-39
0.071164176 0.048842713 0.015788419 9.219563e-39
0.067616515 0.053072616 0.018297845 9.219563e-39
0.076046467 0.043021522 0.020176169 9.219563e-39
0.066805534 0.054039553 0.0015786045 9.219563e-39
0.079797268 0.038549412 0.019951753 9.219563e-39
0.078298159 0.04033681 0.014611647 9.219563e-39
0.076299571 0.042719744 0.022590077 9.219563e-39
0.06712307 0.053660955 0.013686774 9.219563e-39
0.070109136 0.050100647 0.027238201 9.219563e-39
0.082678899 0.035113625 0.026886053 9.219563e-39
0.068826765 0.051629625 0.024880735 9.219563e-39
0.066044904 0.054946456 0.0085664811 9.219563e-39
0.069621779 0.050681721 0.017898913 9.219563e-39
0.076141797 0.042907856 0.025806041 9.219563e-39
0.074421212 0.044959325 0.027883658 9.219563e-39
0.081272192 0.036790848 0.019465467 9.219563e-39
0.076714784 0.042224675 0.026845677 9.219563e-39
0.077681974 0.041071489 0.016401593 9.219563e-39
0.073323973 0.046267573 0.014334446 9.219563e-39
0.082401223 0.035444699 0.021505289 9.219563e-39
0.072806053 0.046885088 0.020958029 9.219563e-39
0.082643911 0.035155337 0.028482871 9.219563e-39
0.089434505 0.027058858 0.027705224 9.219563e-39
0.076646782 0.04230576 0.021138566 9.219563e-39
0.06781292 0.052838445 0.0026645262 9.219563e-39
0.068636894 0.051856011 0.022519162 9.219563e-39
0.066111751 0.054866761 0.0067329076 9.219563e-39
0.080728069 0.037439615 0.024376445 9.219563e-39
0.071267612 0.048719384 0.014495122 9.219563e-39
0.087434635 0.029443324 0.027388809 9.219563e-39
0.071834683 0.048043258 0.028486786 9.219563e-39
0.090172663 0.026178751 0.029970117 9.219563e-39
0.069982141 0.050252061 0.025810419 9.219563e-39
0.086533397 0.030517872 0.02722175 9.219563e-39
0.081179269 0.036901645 0.020688765 9.219563e-39
0.073426992 0.046144743 0.012963586 9.219563e-39
0.088192753 0.028539412 0.02596963 9.219563e-39
0.071166053 0.048840474 0.010727997 9.219563e-39
0.077450499 0.041347485 0.02989913 9.219563e-39
0.079726256 0.038634077 0.027242946 9.219563e-39
0.070092514 0.050120462 0.0070441663 9.219563e-39
0.073308133 0.04628646 0.028386682 9.219563e-39
0.0695474 0.050770406 0.022095777 9.219563e-39
0.070330471 0.049836747 0.015619636 9.219563e-39
0.069153704 0.051239811 0.028011493 9.219563e-39
0.074262708 0.045148313 0.012002716 9.219563e-39
0.067963451 0.052658968 0.0093493583 9.219563e-39
0.08687225 0.030113859 0.026019737 9.219563e-39
0.078637898 0.039931737 0.019892223 9.219563e-39
0.071703367 0.048199829 0.0082779042 9.219563e-39
0.068717077 0.051760405 0.013069457 9.219563e-39
0.086430959 0.03064001 0.023852415 9.219563e-39
0.068025142 0.052585408 0.027969539 9.219563e-39
0.084504187 0.032937318 0.026600419 9.219563e-39
0.0791087 0.039370399 0.023801671 9.219563e-39
0.068783045 0.051681753 0.018666528 9.219563e-39
0.083533496 0.034094676 0.022383291 9.219563e-39
0.068774804 0.051691577 0.016983364 9.219563e-39
0.080026142 0.03827652 0.021177731 9.219563e-39
0.067275435 0.053479288 0.028508887 9.219563e-39
0.082673371 0.035120215 0.025510343 9.219563e-39
0.083417282 0.034233246 0.027576894 9.219563e-39
0.066922203 0.053900447 0.010946756 9.219563e-39
0.066595219 0.054290321 0.0055966354 9.219563e-39
0.083170421 0.034527577 0.024214922 9.219563e-39
0.066286474 0.054658432 0.012056726 9.219563e-39
0.076418348 0.042578124 0.013837085 9.219563e-39
0.073796779 0.04570384 0.024564015 9.219563e-39
0.078645475 0.039922703 0.027314842 9.219563e-39
0.081673764 0.036312055 0.026532996 9.219563e-39
0.066763304 0.054089904 0.017721159 9.219563e-39
0.079061046 0.03942721 0.015377551 9.219563e-39
0.069351994 0.051003393 0.02338157 9.219563e-39
0.069784917 0.050487213 0.0015050336 9.219563e-39
0.090567261 0.025708264 0.015389992 9.219563e-39
0.088792823 0.02782394 0.019114526 9.219563e-39
0.07317555 0.046444543 0.0032808406 9.219563e-39
0.08620815 0.030905666 0.019687871 9.219563e-39
0.082022391 0.035896383 0.0062364582 9.219563e-39
0.071942315 0.04791493 0.0068439958 9.219563e-39
0.078358866 0.040264424 0.007012974 9.219563e-39
0.086033292 0.031114154 0.012865219 9.219563e-39
0.073867165 0.04561992 0.0068136789 9.219563e-39
0.090597294 0.025672458 0.0031527265 9.219563e-39
0.088390119 0.028304091 0.0047177789 9.219563e-39
0.075246304 0.043975558 0.0072488035 9.219563e-39
0.084240049 0.03325225 0.0054665804 9.219563e-39
0.083309978 0.03436118 0.016179003 9.219563e-39
0.07710062 0.041764647 0.0094190529 9.219563e-39
0.089258812 0.027268335 0.014344268 9.219563e-39
0.080409303 0.037819676 0.013499669 9.219563e-39
0.08810316 0.028646233 0.022596993 9.219563e-39
0.083975106 0.03356814 0.0067540882 9.219563e-39
0.084999934 0.032346237 0.0043174429 9.219563e-39
0.086714819 0.030301562 0.014199776 9.219563e-39
0.08456251 0.032867778 0.017343584 9.219563e-39
0.081864432 0.036084715 0.012774716 9.219563e-39
0.084491186 0.032952819 0.012613746 9.219563e-39
0.076825254 0.042092968 0.0014281451 9.219563e-39
0.081851453 0.036100194 0.015980417 9.219563e-39
0.089343883 0.027166909 0.0084581412 9.219563e-39
0.091656446 0.024409618 0.015910132 9.219563e-39
0.074313611 0.045087617 0.0055311527 9.219563e-39
0.091246441 0.024898471 0.029096603 9.219563e-39
0.087625287 0.029215999 0.0012025181 9.219563e-39
0.08637473 0.030707056 0.0051376079 9.219563e-39
0.090085216 0.026283013 0.010163184 9.219563e-39
0.090958588 0.02524168 0.020695843 9.219563e-39
0.077813402 0.040914789 0.013266234 9.219563e-39
0.084324278 0.03315182 0.00023212782 9.219563e-39
0.091175586 0.024982959 0.022107605 9.219563e-39
0.074851736 0.044446006 0.00022221424 9.219563e-39
0.070075847 0.050140336 0.0036989741 9.219563e-39
0.084792197 0.032593921 0.020285452 9.219563e-39
0.091472246 0.024629245 0.0086901486 9.219563e-39
0.089138977 0.027411217 0.0121242 9.219563e-39
0.080152012 0.03812645 0.010220535 9.219563e-39
0.087900676 0.028887659 0.012598995 9.219563e-39
0.071028195 0.049004842 0.0016424623 9.219563e-39
0.071837112 0.048040364 0.00041201344 9.219563e-39
0.085975401 0.031183176 0.011563089 9.219563e-39
0.086652167 0.030376263 0.0028772946 9.219563e-39
0.08390969 0.033646137 0.01469187 9.219563e-39
0.077897072 0.040815029 0.0036574951 9.219563e-39
0.090131521 0.026227802 0.022677174 9.219563e-39
0.086264238 0.030838791 0.0084396722 9.219563e-39
0.077919893 0.040787823 0.0096338959 9.219563e-39
0.090727977 0.025516642 0.013949752 9.219563e-39
0.085090004 0.032238845 0.0029276107 9.219563e-39
0.080672562 0.037505791 0.0009517243 9.219563e-39
0.091742761 0.024306709 0.020786872 9.219563e-39
0.085750796 0.031450972 0.015149395 9.219563e-39
0.08048927 0.037724327 0.0052263755 9.219563e-39
0.082613692 0.035191372 0.013759114 9.219563e-39
0.082833268 0.03492957 0.011811245 9.219563e-39
0.08502011 0.03232218 0.0064386562 9.219563e-39
0.08330857 0.034362856 0.0035742673 9.219563e-39
0.081317931 0.036736317 0.014484266 9.219563e-39
0.09197934 0.02402463 0.023532234 9.219563e-39
0.077550165 0.041228648 0.0079456093 9.219563e-39
0.086269632 0.030832361 0.0065757819 9.219563e-39
0.086939171 0.030034067 0.018984336 9.219563e-39
0.079241388 0.03921219 0.0080905082 9.219563e-39
0.072348021 0.047431204 0.0025390435 9.219563e-39
0.086852483 0.030137422 0.012885229 9.219563e-39
0.090812989 0.025415285 0.016948665 9.219563e-39
0.081587747 0.036414612 0.0050513279 9.219563e-39
0.086681239 0.030341603 0.021136481 9.219563e-39
0.091346189 0.024779545 0.001167529 9.219563e-39
0.089951336 0.026442636 0.025772382 9.219563e-39
0.089014836 0.027559236 0.00049241015 9.219563e-39
0.080139816 0.038140986 6.20051e-05 9.219563e-39
0.0811809 0.036899693 0.0037462506 9.219563e-39
0.09040238 0.025904851 0.012016997 9.219563e-39
0.084274173 0.033211559 0.015802883 9.219563e-39
0.085465178 0.031791523 0.0097644674 9.219563e-39
0.091414444 0.024698166 0.027147416 9.219563e-39
0.087357916 0.029534793 0.024023499 9.219563e-39
0.090884402 0.025330136 0.0061155926 9.219563e-39
0.07612168 0.04293184 0.0023691063 9.219563e-39
0.082163997 0.035727538 0.01796185 9.219563e-39
0.086337052 0.030751972 0.016466793 9.219563e-39
0.077593043 0.041177526 0.0016223505 9.219563e-39
0.072646737 0.047075048 0.0051894072 9.219563e-39
0.085787877 0.031406756 0.003945054 9.219563e-39
0.084088355 0.033433117 0.011293602 9.219563e-39
0.085118629 0.03220471 0.0086876666 9.219563e-39
0.081181489 0.036898993 0.0166276 9.219563e-39
0.089305088 0.027213162 0.010824421 9.219563e-39
0.089872733 0.026536355 0.018879456 9.219563e-39
0.090660833 0.025596702 0.018451683 9.219563e-39
0.08593443 0.031232025 0.017699502 9.219563e-39
0.086639628 0.030391216 0.00034310389 9.219563e-39
0.082704298 0.035083339 0.01038892 9.219563e-39
0.086034328 0.031112917 0.022450661 9.219563e-39
0.086953051 0.030017519 0.022820758 9.219563e-39
0.078817464 0.039717641 0.009598542 9.219563e-39
0.073964842 0.04550346 0.0019985687 9.219563e-39
0.083575457 0.034044642 0.018044757 9.219563e-39
0.080475397 0.037740875 0.015118035 9.219563e-39
0.077844985 0.040877134 0.011018124 9.219563e-39
0.074537419 0.044820767 0.003239423 9.219563e-39
0.091206759 0.024945786 0.012688992 9.219563e-39
0.075586304 0.043570179 0.0046775113 9.219563e-39
0.089878969 0.026528923 0.0060393228 9.219563e-39
0.068851992 0.051599551 0.00075466145 9.219563e-39
0.089686312 0.026758628 0.020721987 9.219563e-39
0.090259202 0.026075568 0.026983971 9.219563e-39
0.07663215 0.042323209 0.012117024 9.219563e-39
0.0772475 0.041589521 0.0046837856 9.219563e-39
0.078254841 0.040388457 0.012090724 9.219563e-39
0.079090796 0.039391737 0.010853052 9.219563e-39
0.071176454 0.048828073 0.005065491 9.219563e-39
0.080175668 0.038098242 0.0087451404 9.219563e-39
0.070990749 0.049049489 0.0038901586 9.219563e-39
0.086201251 0.030913891 0.0017884545 9.219563e-39
0.087265521 0.029644955 0.008067375 9.219563e-39
0.089596674 0.026865503 0.023705672 9.219563e-39
0.088860475 0.027743284 0.021357425 9.219563e-39
0.084970482 0.032381348 0.011228926 9.219563e-39
0.089484729 0.026998978 0.016061844 9.219563e-39
0.089950562 0.026443565 0.017353339 9.219563e-39
0.076171301 0.042872675 0.0081185382 9.219563e-39
0.08798258 0.028790001 0.021160875 9.219563e-39
0.088058829 0.028699091 0.0089028971 9.219563e-39
0.089031518 0.027539343 0.026083339 9.219563e-39
0.080953218 0.037171163 0.0023710916 9.219563e-39
0.076467656 0.042519335 0.0038473627 9.219563e-39
0.068989821 0.051435217 0.0019992674 9.219563e-39
0.087221093 0.029697929 0.011558895 9.219563e-39
0.091401368 0.024713757 0.010128304 9.219563e-39
0.081202962 0.036873389 0.0071240668 9.219563e-39
0.088344194 0.028358843 0.0030508242 9.219563e-39
0.085461929 0.03179539 0.00071002153 9.219563e-39
0.091109671 0.025061546 0.0046769525 9.219563e-39
0.078613348 0.039961006 0.0029604626 9.219563e-39
0.075390354 0.043803811 0.0088198939 9.219563e-39
0.081761084 0.03620794 0.0095676621 9.219563e-39
0.071892574 0.04797424 0.0041229059 9.219563e-39
0.077628985 0.04113467 0.0062076706 9.219563e-39
0.082476564 0.035354864 0.016849458 9.219563e-39
0.071480952 0.048465017 0.0026218686 9.219563e-39
0.075382352 0.043813352 0.0034231876 9.219563e-39
0.084110826 0.033406325 0.0084117241 9.219563e-39
0.082280219 0.035588972 0.00226799 9.219563e-39
0.084384091 0.033080507 0.0017038977 9.219563e-39
0.085008748 0.032335725 0.018811289 9.219563e-39
0.080041274 0.038258482 0.0065323757 9.219563e-39
0.075752355 0.043372195 7.0814065e-05 9.219563e-39
0.090231106 0.026109071 0.0048790718 9.219563e-39
0.082371071 0.035480645 0.008500902 9.219563e-39
0.091033496 0.025152368 0.0073325848 9.219563e-39
0.085607469 0.031621866 0.021321304 9.219563e-39
0.076197833 0.04284104 0.0068281926 9.219563e-39
0.08959423 0.02686842 0.0027559884 9.219563e-39
0.080295421 0.037955455 0.0035502552 9.219563e-39
0.081700332 0.036280375 0.0013357323 9.219563e-39
0.087602861 0.029242739 0.0061892159 9.219563e-39
0.087066792 0.029881904 0.017608184 9.219563e-39
0.0824783 0.0353528 0.015077896 9.219563e-39
0.080618016 0.037570827 0.011879116 9.219563e-39
0.090125866 0.026234539 0.0079539428 9.219563e-39
0.076719932 0.042218547 0.0057267384 9.219563e-39
0.091493241 0.024604209 0.017998442 9.219563e-39
0.072755821 0.04694498 0.0071143731 9.219563e-39
0.087175421 0.029752379 0.0044646608 9.219563e-39
0.081403792 0.036633946 0.011541931 9.219563e-39
0.086625546 0.030408001 0.010466799 9.219563e-39
0.091993287 0.024008004 0.0025128943 9.219563e-39
0.078433752 0.040175144 0.00011989054 9.219563e-39
0.078287184 0.040349893 0.0084194951 9.219563e-39
0.088378109 0.028318405 0.0016267012 9.219563e-39
0.091953911 0.024054956 0.011706465 9.219563e-39
0.089048743 0.027518807 0.0055722692 9.219563e-39
0.079504907 0.038897995 0.0026943539 9.219563e-39
0.088392869 0.028300807 0.024541065 9.219563e-39
0.076156408 0.042890437 0.010695297 9.219563e-39
0.088964142 0.027619677 0.022653334 9.219563e-39
0.087932013 0.028850289 0.014107735 9.219563e-39
0.084972456 0.032378998 0.014250178 9.219563e-39
0.089143328 0.027406029 0.0069407159 9.219563e-39
0.088390239 0.028303947 0.016068295 9.219563e-39
0.087768815 0.029044874 0.018546609 9.219563e-39
0.083004467 0.034725443 0.00650805 9.219563e-39
0.08347819 0.034160621 0.0021686135 9.219563e-39
0.090566106 0.02570964 0.023757219 9.219563e-39
0.091226839 0.024921848 0.024930991 9.219563e-39
0.075580239 0.043577407 0.0014360856 9.219563e-39
0.088733256 0.027894966 0.013348656 9.219563e-39
0.082036667 0.035879359 0.004031965 9.219563e-39
0.083686642 0.033912081 0.013417545 9.219563e-39
0.083131686 0.03457376 0.0090939924 9.219563e-39
0.078440785 0.040166754 0.0057011642 9.219563e-39
0.078894809 0.039625421 0.0016187616 9.219563e-39
0.079497911 0.038906332 0.0046477355 9.219563e-39
0.089826986 0.0265909 0.0014201343 9.219563e-39
0.087727085 0.029094625 0.016790031 9.219563e-39
0.087379985 0.029508477 0.014975763 9.219563e-39
0.079464093 0.038946658 0.013512149 9.219563e-39
0.076960854 0.04193129 0.01089421 9.219563e-39
0.087538198 0.029319838 0.010374657 9.219563e-39
0.079412952 0.039007638 0.012155737 9.219563e-39
0.089947432 0.026447294 0.013551109 9.219563e-39
0.03663794 0.055 0.0068508824 9.219563e-39
0.040872477 0.055 0.015620632 9.219563e-39
0.045162328 0.055 0.015422616 9.219563e-39
0.049314942 0.055 0.025765767 9.219563e-39
0.039700449 0.055 0.011963042 9.219563e-39
0.056548771 0.055 0.026037281 9.219563e-39
0.041583594 0.055 0.020422272 9.219563e-39
0.054803237 0.055 0.025426213 9.219563e-39
0.032645039 0.055 0.020039871 9.219563e-39
0.063249096 0.055 0.028299086 9.219563e-39
0.044029091 0.055 0.013732345 9.219563e-39
0.049182262 0.055 0.020894093 9.219563e-39
0.031644881 0.055 0.022943588 9.219563e-39
0.037191417 0.055 0.028986545 9.219563e-39
0.04833236 0.055 0.027547775 9.219563e-39
0.043826014 0.055 0.021589523 9.219563e-39
0.044457417 0.055 0.027400918 9.219563e-39
0.03024227 0.055 0.0048976908 9.219563e-39
0.03430552 0.055 0.024302049 9.219563e-39
0.038894262 0.055 0.010636968 9.219563e-39
0.032794613 0.055 0.0063078632 9.219563e-39
0.039686408 0.055 0.027075801 9.219563e-39
0.035806358 0.055 0.02170294 9.219563e-39
0.046569835 0.055 0.029562673 9.219563e-39
0.048950437 0.055 0.024501737 9.219563e-39
0.050445173 0.055 0.028771339 9.219563e-39
0.035060275 0.055 0.029928744 9.219563e-39
0.045728561 0.055 0.016531076 9.219563e-39
0.03165419 0.055 0.015355174 9.219563e-39
0.036149703 0.055 0.01677727 9.219563e-39
0.05848784 0.055 0.026745532 9.219563e-39
0.030228134 0.055 0.024181301 9.219563e-39
0.033658259 0.055 0.014121391 9.219563e-39
0.033337384 0.055 0.011772413 9.219563e-39
0.034641586 0.055 0.012052924 9.219563e-39
0.049774967 0.055 0.019284286 9.219563e-39
0.035312001 0.055 0.0082076807 9.219563e-39
0.04727288 0.055 0.028166441 9.219563e-39
0.045652796 0.055 0.018667893 9.219563e-39
0.047233388 0.055 0.026604716 9.219563e-39
0.041837871 0.055 0.016849175 9.219563e-39
0.038718153 0.055 0.017158467 9.219563e-39
0.044394124 0.055 0.020383555 9.219563e-39
0.048251897 0.055 0.019825239 9.219563e-39
0.035652146 0.055 0.0050475416 9.219563e-39
0.03293781 0.055 0.016004413 9.219563e-39
0.056939349 0.055 0.024575431 9.219563e-39
0.034291025 0.055 0.015834756 9.219563e-39
0.040376812 0.055 0.0089148888 9.219563e-39
0.037197165 0.055 0.023421679 9.219563e-39
0.050152857 0.055 0.021857124 9.219563e-39
0.053617604 0.055 0.02481091 9.219563e-39
0.043738093 0.055 0.022993963 9.219563e-39
0.038486734 0.055 0.029999148 9.219563e-39
0.041196 0.055 0.017983733 9.219563e-39
0.038401298 0.055 0.028342957 9.219563e-39
0.055321313 0.055 0.022640863 9.219563e-39
0.059669156 0.055 0.025826961 9.219563e-39
0.047045555 0.055 0.018713426 9.219563e-39
0.053440042 0.055 0.022459723 9.219563e-39
0.033237241 0.055 0.0095750373 9.219563e-39
0.049857732 0.055 0.027656108 9.219563e-39
0.055606108 0.055 0.028698279 9.219563e-39
0.036039561 0.055 0.026682831 9.219563e-39
0.044761654 0.055 0.017350398 9.219563e-39
0.050912321 0.055 0.019762777 9.219563e-39
0.031895377 0.055 0.010796011 9.219563e-39
0.043212935 0.055 0.016006995 9.219563e-39
0.035111081 0.055 0.014779862 9.219563e-39
0.037311219 0.055 0.014012389 9.219563e-39
0.035435285 0.055 0.02545006 9.219563e-39
0.045441523 0.055 0.028612375 9.219563e-39
0.039200053 0.055 0.014369466 9.219563e-39
0.035720807 0.055 0.023604844 9.219563e-39
0.058795415 0.055 0.025005981 9.219563e-39
0.0403184 0.055 0.010335074 9.219563e-39
0.046481282 0.055 0.024513735 9.219563e-39
0.033247054 0.055 0.025257703 9.219563e-39
0.032532331 0.055 0.013635704 9.219563e-39
0.0361499 0.055 0.011154327 9.219563e-39
0.05427371 0.055 0.023687104 9.219563e-39
0.033060364 0.055 0.007651316 9.219563e-39
0.031989165 0.055 0.0092678498 9.219563e-39
0.052131802 0.055 0.026035648 9.219563e-39
0.037695747 0.055 0.011532811 9.219563e-39
0.051602643 0.055 0.018030822 9.219563e-39
0.04110099 0.055 0.011959555 9.219563e-39
0.044580661 0.055 0.023844738 9.219563e-39
0.033163302 0.055 0.022919083 9.219563e-39
0.039374094 0.055 0.021288842 9.219563e-39
0.039216243 0.055 0.015916098 9.219563e-39
0.054764826 0.055 0.021164075 9.219563e-39
0.046306506 0.055 0.025719458 9.219563e-39
0.051769521 0.055 0.029975602 9.219563e-39
0.031123215 0.055 0.0014174945 9.219563e-39
0.036372416 0.055 0.012938173 9.219563e-39
0.042018611 0.055 0.02977515 9.219563e-39
0.031153306 0.055 0.02034064 9.219563e-39
0.045363907 0.055 0.021450775 9.219563e-39
0.038479302 0.055 0.0078831427 9.219563e-39
0.031706788 0.055 0.0055804141 9.219563e-39
0.045744363 0.055 0.027089359 9.219563e-39
0.040788453 0.055 0.013828662 9.219563e-39
0.051027626 0.055 0.026861783 9.219563e-39
0.032992557 0.055 0.026942465 9.219563e-39
0.04956146 0.055 0.023427427 9.219563e-39
0.041870888 0.055 0.013171399 9.219563e-39
0.056966431 0.055 0.027226998 9.219563e-39
0.04640938 0.055 0.022737909 9.219563e-39
0.047637977 0.055 0.025055224 9.219563e-39
0.056993857 0.055 0.029493624 9.219563e-39
0.05413622 0.055 0.026901999 9.219563e-39
0.041634068 0.055 0.019128736 9.219563e-39
0.044333652 0.055 0.012245888 9.219563e-39
0.051496591 0.055 0.021014856 9.219563e-39
0.037156269 0.055 0.0090178298 9.219563e-39
0.062040973 0.055 0.027967291 9.219563e-39
0.035093542 0.055 0.01329523 9.219563e-39
0.041744012 0.055 0.023015235 9.219563e-39
0.031149926 0.055 0.014008113 9.219563e-39
0.035898138 0.055 0.020424305 9.219563e-39
0.037130658 0.055 0.024736281 9.219563e-39
0.059982996 0.055 0.028627031 9.219563e-39
0.053224321 0.055 0.029051684 9.219563e-39
0.057515062 0.055 0.023263056 9.219563e-39
0.034992717 0.055 0.028364243 9.219563e-39
0.037248116 0.055 0.021362247 9.219563e-39
0.037694134 0.055 0.012836644 9.219563e-39
0.030581918 0.055 0.0083363187 9.219563e-39
0.032400154 0.055 0.0020406011 9.219563e-39
0.040478114 0.055 0.022491444 9.219563e-39
0.031377397 0.055 0.012618725 9.219563e-39
0.033154741 0.055 0.0038165173 9.219563e-39
0.051983561 0.055 0.023213007 9.219563e-39
0.044677723 0.055 0.026152099 9.219563e-39
0.052030984 0.055 0.027643809 9.219563e-39
0.034259845 0.055 0.0052351858 9.219563e-39
0.037700862 0.055 0.018440899 9.219563e-39
0.046974231 0.055 0.014882303 9.219563e-39
0.043019362 0.055 0.018624352 9.219563e-39
0.036008429 0.055 0.018924009 9.219563e-39
0.042486355 0.055 0.012034154 9.219563e-39
0.053275537 0.055 0.020761045 9.219563e-39
0.037101354 0.055 0.015746655 9.219563e-39
0.052833751 0.055 0.019142229 9.219563e-39
0.034488723 0.055 0.021190228 9.219563e-39
0.03835202 0.055 0.025886891 9.219563e-39
0.032123614 0.055 0.018546535 9.219563e-39
0.034050785 0.055 0.018419215 9.219563e-39
0.031539131 0.055 0.026652506 9.219563e-39
0.042861361 0.055 0.025552396 9.219563e-39
0.031133438 0.055 0.021817347 9.219563e-39
0.034426309 0.055 0.017268153 9.219563e-39
0.03786584 0.055 0.027213242 9.219563e-39
0.042836159 0.055 0.020569399 9.219563e-39
0.040065743 0.055 0.028437719 9.219563e-39
0.047754262 0.055 0.016487041 9.219563e-39
0.030095281 0.055 0.018250659 9.219563e-39
0.030844644 0.055 0.028092399 9.219563e-39
0.043660931 0.055 0.028999034 9.219563e-39
0.032216191 0.055 0.028431123 9.219563e-39
0.050608616 0.055 0.024552394 9.219563e-39
0.046988789 0.055 0.02034219 9.219563e-39
0.043072853 0.055 0.024281928 9.219563e-39
0.058713716 0.055 0.028255241 9.219563e-39
0.049066629 0.055 0.029798256 9.219563e-39
0.037334129 0.055 0.017117836 9.219563e-39
0.031029304 0.055 0.016796021 9.219563e-39
0.03512248 0.055 0.0064961417 9.219563e-39
0.060085095 0.055 0.027134405 9.219563e-39
0.0425747 0.055 0.014342969 9.219563e-39
0.033063136 0.055 0.021386264 9.219563e-39
0.0413386 0.055 0.027776789 9.219563e-39
0.039792985 0.055 0.019770117 9.219563e-39
0.032042202 0.055 0.0043203421 9.219563e-39
0.047650248 0.055 0.022615233 9.219563e-39
0.037532307 0.055 0.019784417 9.219563e-39
0.03052517 0.055 0.010528724 9.219563e-39
0.050394088 0.055 0.01760754 9.219563e-39
0.040408142 0.055 0.016895309 9.219563e-39
0.034157809 0.055 0.0107425 9.219563e-39
0.038979813 0.055 0.022765314 9.219563e-39
0.038979042 0.055 0.0091025559 9.219563e-39
0.049326681 0.055 0.016897563 9.219563e-39
0.043135725 0.055 0.027293995 9.219563e-39
0.031151198 0.055 0.029888548 9.219563e-39
0.041480109 0.055 0.025883261 9.219563e-39
0.039710734 0.055 0.024352871 9.219563e-39
0.049190767 0.055 0.0054481989 9.219563e-39
0.060745582 0.055 0.0066502201 9.219563e-39
0.050086316 0.055 0.0034592457 9.219563e-39
0.060896747 0.055 0.011729236 9.219563e-39
0.057168137 0.055 0.013702367 9.219563e-39
0.062722996 0.055 0.00022849749 9.219563e-39
0.036653601 0.055 0.0040744687 9.219563e-39
0.034918126 0.055 0.00063162908 9.219563e-39
0.065156087 0.055 0.024029406 9.219563e-39
0.039947364 0.055 0.00055873307 9.219563e-39
0.065462939 0.055 0.010129921 9.219563e-39
0.060488027 0.055 0.004787995 9.219563e-39
0.063377544 0.055 0.0014995139 9.219563e-39
0.064463936 0.055 0.018517498 9.219563e-39
0.056414075 0.055 0.0040191971 9.219563e-39
0.064464733 0.055 0.0090162391 9.219563e-39
0.051778499 0.055 0.0041137803 9.219563e-39
0.056150846 0.055 0.019325001 9.219563e-39
0.065175481 0.055 0.012542821 9.219563e-39
0.057106528 0.055 0.0018167364 9.219563e-39
0.055907298 0.055 0.0091293594 9.219563e-39
0.059942998 0.055 0.010524021 9.219563e-39
0.0524088 0.055 0.0091165388 9.219563e-39
0.059265252 0.055 0.022758882 9.219563e-39
0.05093291 0.055 0.0052553127 9.219563e-39
0.051556364 0.055 0.0068997135 9.219563e-39
0.038823541 0.055 0.005113577 9.219563e-39
0.039713856 0.055 0.0025900488 9.219563e-39
0.061430667 0.055 0.025759574 9.219563e-39
0.060330868 0.055 0.021931846 9.219563e-39
0.04202728 0.055 0.0047968109 9.219563e-39
0.052421968 0.055 0.0053170505 9.219563e-39
0.047825161 0.055 0.01236818 9.219563e-39
0.060063545 0.055 0.02445917 9.219563e-39
0.044735383 0.055 0.0045235278 9.219563e-39
0.060971063 0.055 0.0026477298 9.219563e-39
0.034836046 0.055 0.0039186035 9.219563e-39
0.059949528 0.055 0.018200425 9.219563e-39
0.049218975 0.055 0.011455736 9.219563e-39
0.065205716 0.055 0.022442948 9.219563e-39
0.064046241 0.055 0.025245678 9.219563e-39
0.048621442 0.055 0.0075807814 9.219563e-39
0.060720921 0.055 0.015358749 9.219563e-39
0.061965946 0.055 0.007128635 9.219563e-39
0.054535132 0.055 0.016045654 9.219563e-39
0.047947079 0.055 0.0060684537 9.219563e-39
0.055333521 0.055 0.018024055 9.219563e-39
0.050853204 0.055 0.0016145675 9.219563e-39
0.044145677 0.055 0.0092529869 9.219563e-39
0.055005431 0.055 0.0043369359 9.219563e-39
0.061530344 0.055 0.0039198468 9.219563e-39
0.064009875 0.055 0.016982626 9.219563e-39
0.06108427 0.055 0.023165787 9.219563e-39
0.062052656 0.055 0.016438829 9.219563e-39
0.065292023 0.055 0.017316215 9.219563e-39
0.04082159 0.055 0.0075271497 9.219563e-39
0.036298029 0.055 0.0010086328 9.219563e-39
0.065464534 0.055 0.0043591675 9.219563e-39
0.062420726 0.055 0.012743254 9.219563e-39
0.056124251 0.055 0.020814054 9.219563e-39
0.051197242 0.055 0.0097200247 9.219563e-39
0.05027061 0.055 0.0066571916 9.219563e-39
0.040493894 0.055 0.0057497271 9.219563e-39
0.054722801 0.055 0.0079710977 9.219563e-39
0.048114102 0.055 0.0038008054 9.219563e-39
0.058336671 0.055 0.0082863811 9.219563e-39
0.038314078 0.055 0.0031659647 9.219563e-39
0.059198543 0.055 0.0028459539 9.219563e-39
0.054779872 0.055 0.010168911 9.219563e-39
0.063447215 0.055 0.0039029603 9.219563e-39
0.043612834 0.055 0.0060338858 9.219563e-39
0.060740139 0.055 0.00093954592 9.219563e-39
0.05359805 0.055 0.0038789029 9.219563e-39
0.052875839 0.055 0.014408436 9.219563e-39
0.048015054 0.055 0.0091714999 9.219563e-39
0.062767871 0.055 0.018117646 9.219563e-39
0.04354725 0.055 0.0036644277 9.219563e-39
0.051926881 0.055 0.00085981627 9.219563e-39
0.05058286 0.055 0.015367603 9.219563e-39
0.063671641 0.055 0.010343161 9.219563e-39
0.053043071 0.055 0.015981818 9.219563e-39
0.038782757 0.055 1.2260138e-05 9.219563e-39
0.042830922 0.055 0.0085726939 9.219563e-39
0.034841862 0.055 0.0025832006 9.219563e-39
0.057254903 0.055 0.0097481627 9.219563e-39
0.041533459 0.055 0.0034102208 9.219563e-39
0.062726244 0.055 0.0027640183 9.219563e-39
0.049510319 0.055 0.0015889262 9.219563e-39
0.060622267 0.055 0.0081524793 9.219563e-39
0.049069617 0.055 0.014994832 9.219563e-39
0.057349894 0.055 0.016761336 9.219563e-39
0.046096414 0.055 0.0098446561 9.219563e-39
0.063710503 0.055 0.022427166 9.219563e-39
0.058264874 0.055 0.018359574 9.219563e-39
0.046943799 0.055 0.0014263036 9.219563e-39
0.04449477 0.055 0.0027700618 9.219563e-39
0.045561291 0.055 0.0017193459 9.219563e-39
0.056635097 0.055 0.02218841 9.219563e-39
0.036048692 0.055 0.0028423243 9.219563e-39
0.048108015 0.055 0.0022690413 9.219563e-39
0.059395228 0.055 0.016108774 9.219563e-39
0.058785498 0.055 0.0049571213 9.219563e-39
0.058899324 0.055 0.0016407492 9.219563e-39
0.062021408 0.055 0.0050712414 9.219563e-39
0.059242569 0.055 0.013926969 9.219563e-39
0.048042957 0.055 0.013914448 9.219563e-39
0.045730378 0.055 0.0054864269 9.219563e-39
0.063287988 0.055 0.023904491 9.219563e-39
0.05842194 0.055 0.012589077 9.219563e-39
0.047502168 0.055 0.01117137 9.219563e-39
0.059195925 0.055 0.020699386 9.219563e-39
0.045685161 0.055 0.012521711 9.219563e-39
0.055172276 0.055 0.0057041519 9.219563e-39
0.064789847 0.055 0.0017585258 9.219563e-39
0.061672576 0.055 0.014004464 9.219563e-39
0.058839202 0.055 0.0099476343 9.219563e-39
0.045557253 0.055 0.0033859534 9.219563e-39
0.042035408 0.055 0.0069840038 9.219563e-39
0.056516226 0.055 0.0053674965 9.219563e-39
0.056017209 0.055 0.012270988 9.219563e-39
0.064435981 0.055 0.013995479 9.219563e-39
0.056337461 0.055 0.015907226 9.219563e-39
0.050009739 0.055 0.012615366 9.219563e-39
0.045296557 0.055 0.0077529899 9.219563e-39
0.048378635 0.055 0.00084856187 9.219563e-39
0.064679131 0.055 0.011293286 9.219563e-39
0.04066525 0.055 0.0017758938 9.219563e-39
0.053806905 0.055 0.005923117 9.219563e-39
0.058056753 0.055 0.01098016 9.219563e-39
0.050528701 0.055 0.0079921773 9.219563e-39
0.065655075 0.055 0.028780207 9.219563e-39
0.061331596 0.055 0.017511349 9.219563e-39
0.05287303 0.055 0.010847615 9.219563e-39
0.044905823 0.055 0.010512465 9.219563e-39
0.053691171 0.055 0.001683134 9.219563e-39
0.049379714 0.055 0.0098094037 9.219563e-39
0.045465879 0.055 9.3151917e-05 9.219563e-39
0.056545384 0.055 0.017964756 9.219563e-39
0.063788339 0.055 0.012819326 9.219563e-39
0.063428111 0.055 0.019349815 9.219563e-39
0.05162714 0.055 0.011000478 9.219563e-39
0.047292564 0.055 0.0074260207 9.219563e-39
0.062792741 0.055 0.026395168 9.219563e-39
0.054743826 0.055 0.011757079 9.219563e-39
0.055834081 0.055 0.00018934542 9.219563e-39
0.043438438 0.055 0.0073586595 9.219563e-39
0.056004345 0.055 0.0075474419 9.219563e-39
0.057299811 0.055 0.014936613 9.219563e-39
0.063564844 0.055 0.021001665 9.219563e-39
0.051896345 0.055 0.0023656909 9.219563e-39
0.04667509 0.055 0.0045316494 9.219563e-39
0.053208802 0.055 0.0080458112 9.219563e-39
0.061918508 0.055 0.0086622257 9.219563e-39
0.053878818 0.055 0.017255289 9.219563e-39
0.043383222 0.055 0.011077338 9.219563e-39
0.055490825 0.055 0.0030240905 9.219563e-39
0.063291341 0.055 0.015752574 9.219563e-39
0.054118469 0.055 0.013831452 9.219563e-39
0.058881722 0.055 0.0069408547 9.219563e-39
0.057676602 0.055 0.0059926044 9.219563e-39
0.038853299 0.055 0.0066809268 9.219563e-39
0.041628454 0.055 0.00066143548 9.219563e-39
0.053538959 0.055 0.012548287 9.219563e-39
0.043055404 0.055 0.0016386406 9.219563e-39
0.065111019 0.055 0.027006621 9.219563e-39
0.065836154 0.055 0.018521784 9.219563e-39
0.051546097 0.055 0.014167232 9.219563e-39
0.052478332 0.055 0.013206288 9.219563e-39
0.051664371 0.055 0.016108043 9.219563e-39
0.06482181 0.055 0.019973967 9.219563e-39
0.063817844 0.055 0.0076567479 9.219563e-39
0.063790388 0.055 0.0055276076 9.219563e-39
0.058106303 0.055 0.0034760481 9.219563e-39
0.043604549 0.055 0.00030195934 9.219563e-39
0.059290942 0.055 0.011663252 9.219563e-39
0.037556384 0.055 0.0019218557 9.219563e-39
0.054030526 0.055 0.019739481 9.219563e-39
0.062171195 0.055 0.010472362 9.219563e-39
0.032172177 0.055 0.00015547688 9.219563e-39
0.037593883 0.055 0.0051166844 9.219563e-39
0.064921856 0.055 0.0063736644 9.219563e-39
0.033600569 0.055 0.0016609301 9.219563e-39
0.055933978 0.055 0.014327716 9.219563e-39
0.059853952 0.055 0.012847284 9.219563e-39
0.061670393 0.055 0.019963611 9.219563e-39
0.046724085 0.055 0.0086321793 9.219563e-39
0.058020748 0.055 0.020074699 9.219563e-39
0.054063629 0.055 0.0091120992 9.219563e-39
0.075979553 0.15048125 0.010908062 9.219563e-39
0.07597959 0.15048049 0.0092910836 9.219563e-39
0.075996488 0.15008271 0.01244985 9.219563e-39
0.075995766 0.15009975 0.0055530234 9.219563e-39
0.075985469 0.15034208 0.02042946 9.219563e-39
0.075983226 0.15039477 0.026334781 9.219563e-39
0.075950168 0.1511731 0.013191196 9.219563e-39
0.075954653 0.15106738 0.0034773978 9.219563e-39
0.075969137 0.15072648 0.022062058 9.219563e-39
0.075841837 0.15202856 0.0059593804 9.219563e-39
0.075887494 0.15167198 0.0014029745 9.219563e-39
0.075938255 0.15127556 0.014744618 9.219563e-39
0.075921632 0.15140541 0.017655769 9.219563e-39
0.075919166 0.15142465 0.007644359 9.219563e-39
0.075894348 0.15161844 0.010288476 9.219563e-39
0.075859867 0.15188773 0.012005769 9.219563e-39
0.075875551 0.15176524 0.0047245356 9.219563e-39
0.075827889 0.15213747 0.015697269 9.219563e-39
0.075878002 0.15174609 0.020070899 9.219563e-39
0.075855494 0.15192188 0.023953345 9.219563e-39
0.075936243 0.15129131 0.028881328 9.219563e-39
0.075915486 0.15145342 0.025517158 9.219563e-39
0.075711489 0.15277031 0.0018529763 9.219563e-39
0.075702623 0.15281144 0.01833898 9.219563e-39
0.075713962 0.15275885 0.0075148623 9.219563e-39
0.075716645 0.15274641 0.014414922 9.219563e-39
0.075652897 0.15304218 0.010463621 9.219563e-39
0.075617418 0.1532068 0.011924512 9.219563e-39
0.075568862 0.1534321 0.019695034 9.219563e-39
0.075591303 0.15332797 0.023696916 9.219563e-39
0.075728431 0.15269169 0.027365416 9.219563e-39
0.075559676 0.15347475 0.015477613 9.219563e-39
0.075553052 0.15350549 0.004176741 9.219563e-39
0.075679347 0.15291944 0.021140547 9.219563e-39
0.075633779 0.1531309 0.025550388 9.219563e-39
0.075687848 0.15288 0.016752943 9.219563e-39
0.075453013 0.15383872 0.0085806213 9.219563e-39
0.075365454 0.15412465 0.0053686211 9.219563e-39
0.07533998 0.15420781 0.0017032484 9.219563e-39
0.07527899 0.15440695 0.02071085 9.219563e-39
0.075304039 0.15432517 0.022195313 9.219563e-39
0.075286627 0.15438204 0.012938385 9.219563e-39
0.075368434 0.1541149 0.026520712 9.219563e-39
0.075262964 0.15445928 0.023937406 9.219563e-39
0.075200401 0.15466358 0.015987974 9.219563e-39
0.075303733 0.15432616 0.01732091 9.219563e-39
0.075041257 0.15505973 0.011262852 9.219563e-39
0.074869178 0.15548795 0.0031575293 9.219563e-39
0.075043969 0.15505297 0.0096937567 9.219563e-39
0.075179882 0.15471473 0.01415265 9.219563e-39
0.075155228 0.1547761 0.0074109742 9.219563e-39
0.075013645 0.15512843 0.00016236182 9.219563e-39
0.074784957 0.15569755 0.022175444 9.219563e-39
0.074946113 0.15529649 0.019516138 9.219563e-39
0.074952483 0.15528063 0.025575694 9.219563e-39
0.075123027 0.15485622 0.027532427 9.219563e-39
0.074806765 0.15564328 0.0055339346 9.219563e-39
0.074513778 0.15624942 0.0085357483 9.219563e-39
0.074704386 0.15587136 0.013245334 9.219563e-39
0.074602582 0.15607329 0.0072014239 9.219563e-39
0.074602038 0.15607436 0.015473859 9.219563e-39
0.074404091 0.15646696 0.0002507387 9.219563e-39
0.074579351 0.15611936 0.0020986008 9.219563e-39
0.074368097 0.15653835 0.02098975 9.219563e-39
0.074404001 0.15646714 0.010620896 9.219563e-39
0.074245632 0.15678126 0.023318449 9.219563e-39
0.074471861 0.15633255 0.028900106 9.219563e-39
0.0743628 0.15654887 0.026918249 9.219563e-39
0.074292213 0.15668885 0.017566338 9.219563e-39
0.074091248 0.1570404 0.0064084064 9.219563e-39
0.074080788 0.15705739 0.0049082367 9.219563e-39
0.074006133 0.15717864 0.013132115 9.219563e-39
0.073893681 0.15736127 0.0026009269 9.219563e-39
0.074188866 0.15688187 0.024653073 9.219563e-39
0.07387805 0.15738666 0.00097318273 9.219563e-39
0.073916681 0.15732393 0.0079794405 9.219563e-39
0.073599242 0.15783946 0.017786883 9.219563e-39
0.073762797 0.15757385 0.02239175 9.219563e-39
0.073674195 0.15771773 0.01208413 9.219563e-39
0.073991135 0.15720299 0.02793153 9.219563e-39
0.07392893 0.15730403 0.019723382 9.219563e-39
0.073207699 0.1583689 0.019100333 9.219563e-39
0.073397018 0.15811293 0.025563041 9.219563e-39
0.072908141 0.15877393 0.012080347 9.219563e-39
0.073115155 0.15849403 0.01341584 9.219563e-39
0.073271841 0.15828218 0.021159386 9.219563e-39
0.073099166 0.15851565 0.028619634 9.219563e-39
0.073178038 0.15840901 0.0019146488 9.219563e-39
0.073437445 0.15805827 0.01477247 9.219563e-39
0.073543705 0.15791459 0.016272737 9.219563e-39
0.07354521 0.15791255 0.026840346 9.219563e-39
0.073383763 0.15813084 0.0091563249 9.219563e-39
0.07357014 0.15787885 0.010626189 9.219563e-39
0.073473796 0.15800911 0.023846442 9.219563e-39
0.073227651 0.15834193 0.0042111753 9.219563e-39
0.072691433 0.15902354 0.024802769 9.219563e-39
0.072660863 0.15905827 0.029661983 9.219563e-39
0.072261937 0.15951154 0.028555889 9.219563e-39
0.072322346 0.1594429 0.022064747 9.219563e-39
0.072482072 0.15926142 0.02345903 9.219563e-39
0.072306529 0.15946087 0.003475246 9.219563e-39
0.072513059 0.15922621 0.0048387521 9.219563e-39
0.072860025 0.15883198 0.017870568 9.219563e-39
0.07276582 0.15893902 0.010840727 9.219563e-39
0.07265678 0.15906291 0.00097013486 9.219563e-39
0.072624348 0.15909976 0.0063357893 9.219563e-39
0.072653048 0.15906714 0.014429501 9.219563e-39
0.072607584 0.1591188 0.0076099872 9.219563e-39
0.071424492 0.16034165 0.022551207 9.219563e-39
0.071585484 0.16018735 0.024845297 9.219563e-39
0.071536139 0.16023465 0.013060392 9.219563e-39
0.071477205 0.16029112 0.014524682 9.219563e-39
0.071472354 0.16029577 0.020992458 9.219563e-39
0.071284316 0.16047598 0.029943466 9.219563e-39
0.071438313 0.1603284 0.0018356708 9.219563e-39
0.072104186 0.15969022 0.01962674 9.219563e-39
0.071907163 0.15987904 0.0084909368 9.219563e-39
0.071642868 0.16013235 0.0044957544 9.219563e-39
0.071930878 0.15985632 0.010320117 9.219563e-39
0.072056726 0.15973569 0.026502036 9.219563e-39
0.072103135 0.15969121 0.015888017 9.219563e-39
0.070684306 0.16096574 0.019741056 9.219563e-39
0.071082868 0.16064392 0.027473716 9.219563e-39
0.070561655 0.16106477 0.012511368 9.219563e-39
0.070492305 0.16112077 0.023696654 9.219563e-39
0.070975631 0.16073051 0.025881609 9.219563e-39
0.070544429 0.16107868 0.010561772 9.219563e-39
0.07113523 0.16060163 0.017078843 9.219563e-39
0.070420489 0.16117875 0.0013065276 9.219563e-39
0.070948079 0.16075274 0.015585061 9.219563e-39
0.070488743 0.16112365 0.0047196918 9.219563e-39
0.071017727 0.16069651 0.0060810004 9.219563e-39
0.071078733 0.16064726 0.0073343222 9.219563e-39
0.070068352 0.16142933 0.027912265 9.219563e-39
0.069868498 0.16156441 0.025286196 9.219563e-39
0.069977283 0.16149089 0.021192189 9.219563e-39
0.069537774 0.16178794 0.0088328077 9.219563e-39
0.069620214 0.16173221 0.014148876 9.219563e-39
0.070184216 0.16135103 0.0033224139 9.219563e-39
0.069643788 0.16171628 0.0071790824 9.219563e-39
0.070098989 0.16140863 1.6624099e-05 9.219563e-39
0.069231465 0.16198221 0.015971603 9.219563e-39
0.069211729 0.16199322 0.019064341 9.219563e-39
0.068683624 0.16228825 0.0046647592 9.219563e-39
0.068690114 0.16228463 0.0007990317 9.219563e-39
0.069094487 0.16205873 0.0034547455 9.219563e-39
0.069307387 0.16193978 0.005707826 9.219563e-39
0.069094844 0.16205852 0.026332263 9.219563e-39
0.068492681 0.16239491 0.024880365 9.219563e-39
0.068787947 0.16222997 0.022825405 9.219563e-39
0.068311505 0.16249612 0.0063077775 9.219563e-39
0.069082886 0.16206521 0.029062465 9.219563e-39
0.068647623 0.16230835 0.010497684 9.219563e-39
0.068726763 0.16226414 0.027615974 9.219563e-39
0.068618104 0.16232485 0.020386115 9.219563e-39
0.06779591 0.16273011 0.0095383218 9.219563e-39
0.068159334 0.16256583 0.001913632 9.219563e-39
0.06797602 0.16264869 0.012364303 9.219563e-39
0.067800462 0.16272806 0.0035495167 9.219563e-39
0.068179019 0.16255693 0.014887703 9.219563e-39
0.067966931 0.16265281 0.0080494583 9.219563e-39
0.067469344 0.16287774 0.016298283 9.219563e-39
0.067878321 0.16269286 0.019236716 9.219563e-39
0.067504928 0.16286165 0.020563448 9.219563e-39
0.067442447 0.16288988 0.013826838 9.219563e-39
0.067592539 0.16282204 0.023083014 9.219563e-39
0.067908309 0.1626793 0.028704202 9.219563e-39
0.066761039 0.16315261 0.005281195 9.219563e-39
0.066441037 0.16326568 0.0012635078 9.219563e-39
0.06713292 0.16302121 0.027260337 9.219563e-39
0.067071028 0.16304308 0.018376974 9.219563e-39
0.066452891 0.16326149 0.0030123873 9.219563e-39
0.066319436 0.16330864 0.022522371 9.219563e-39
0.066180818 0.16335762 0.012621884 9.219563e-39
0.066272065 0.16332537 0.011245334 9.219563e-39
0.066300556 0.16331531 0.023736604 9.219563e-39
0.066271357 0.16332562 0.028540196 9.219563e-39
0.06623096 0.1633399 0.015216975 9.219563e-39
0.066303216 0.16331437 0.01993488 9.219563e-39
0.066219591 0.16334391 0.025071507 9.219563e-39
0.065939337 0.16342804 0.0092806043 9.219563e-39
0.065913014 0.16343489 0.017684311 9.219563e-39
0.065654956 0.1635021 3.8386213e-05 9.219563e-39
0.065934442 0.16342932 0.0071373433 9.219563e-39
0.065910809 0.16343547 0.0042894478 9.219563e-39
0.065243281 0.16360928 0.013409143 9.219563e-39
0.065410949 0.16356562 0.021311212 9.219563e-39
0.065329514 0.16358683 0.027311772 9.219563e-39
0.065044224 0.16366111 0.022921046 9.219563e-39
0.065048285 0.16366005 0.019434256 9.219563e-39
0.064645536 0.16373789 0.0014103944 9.219563e-39
0.064897776 0.16369465 0.026156383 9.219563e-39
0.064543068 0.16375546 0.0097633246 9.219563e-39
0.064707071 0.16372734 0.0041850107 9.219563e-39
0.064535595 0.16375674 0.011662973 9.219563e-39
0.06493178 0.16368881 0.0083220107 9.219563e-39
0.064320058 0.16379371 0.0067740693 9.219563e-39
0.064198032 0.16381463 0.021079751 9.219563e-39
0.06412521 0.16382712 0.024214612 9.219563e-39
0.064272553 0.16380185 0.028525012 9.219563e-39
0.063838266 0.16387632 0.013799078 9.219563e-39
0.064209528 0.16381267 0.015016596 9.219563e-39
0.06313125 0.16394168 0.0073223887 9.219563e-39
0.063674822 0.16389541 0.0056964369 9.219563e-39
0.063059084 0.16394782 3.8486352e-05 9.219563e-39
0.063623875 0.16389975 0.018652758 9.219563e-39
0.063510373 0.16390941 0.0022692825 9.219563e-39
0.063576899 0.16390374 0.0089015746 9.219563e-39
0.063647553 0.16389774 0.016304357 9.219563e-39
0.063717812 0.16389176 0.026635977 9.219563e-39
0.063169099 0.16393845 0.010214412 9.219563e-39
0.062672988 0.16398068 0.015439094 9.219563e-39
0.06272053 0.16397662 0.017150754 9.219563e-39
0.062728345 0.16397597 0.0038283954 9.219563e-39
0.06299787 0.16395302 0.023429751 9.219563e-39
0.061762672 0.16398738 3.1001386e-05 9.219563e-39
0.061943412 0.16398738 0.0014193641 9.219563e-39
0.061719999 0.16398738 0.0064305612 9.219563e-39
0.062565863 0.16398738 0.014002916 9.219563e-39
0.062511832 0.16398738 0.019533124 9.219563e-39
0.061509166 0.16398738 0.0085594384 9.219563e-39
0.062393945 0.16398738 0.028910499 9.219563e-39
0.061803862 0.16398738 0.01043607 9.219563e-39
0.06163853 0.16398738 0.025299799 9.219563e-39
0.061573975 0.16398738 0.012006902 9.219563e-39
0.06233174 0.16398738 0.027479682 9.219563e-39
0.062232666 0.16398738 0.021622973 9.219563e-39
0.061238267 0.16397312 0.017756831 9.219563e-39
0.061367199 0.16398409 0.0043323571 9.219563e-39
0.061280116 0.16397668 0.015717689 9.219563e-39
0.060699798 0.1639273 0.0096531315 9.219563e-39
0.060492028 0.16390961 0.0029833785 9.219563e-39
0.060766127 0.16393293 0.023838624 9.219563e-39
0.060683012 0.16392587 0.013590964 9.219563e-39
0.060354494 0.1638979 0.011200004 9.219563e-39
0.06086171 0.16394107 0.020054806 9.219563e-39
0.059993181 0.16384742 0.021136282 9.219563e-39
0.059811238 0.16381623 0.0015691324 9.219563e-39
0.059981056 0.16384535 0.006507596 9.219563e-39
0.059985556 0.16384611 0.0080405865 9.219563e-39
0.06018322 0.16388001 0.02690017 9.219563e-39
0.060194168 0.16388188 0.018866928 9.219563e-39
0.059851162 0.16382307 0.00017936103 9.219563e-39
0.059675027 0.16379286 0.004889511 9.219563e-39
0.060079854 0.16386227 0.028829392 9.219563e-39
0.059457999 0.16375566 0.016171906 9.219563e-39
0.059608523 0.16378146 0.022815583 9.219563e-39
0.059115268 0.16369689 0.027529404 9.219563e-39
0.059284799 0.16372596 0.019953081 9.219563e-39
0.059104528 0.16369504 0.029926116 9.219563e-39
0.059071831 0.16368943 0.018337311 9.219563e-39
0.059100457 0.16369434 0.01226199 9.219563e-39
