# .PCD v0.7 - Point Cloud Data file format
VERSION 0.7
FIELDS x y z rgb
SIZE 4 4 4 4
TYPE F F F F
COUNT 1 1 1 1
WIDTH 937
HEIGHT 1
VIEWPOINT 0 0 0 1 0 0 0
POINTS 937
DATA ascii
0.01228887 0.005982039 0.0042000087 9.219563e-39
0.012924971 0.0058905254 0.0060317242 9.219563e-39
0.012689609 0.005924386 0.0036499731 9.219563e-39
0.012629076 0.0059330948 0.0042630318 9.219563e-39
0.012339467 0.0059747598 0.0056497571 9.219563e-39
0.011744536 0.0060603507 0.0055174851 9.219563e-39
0.007409011 0.0066840891 0.010401395 9.219563e-39
0.016522402 0.0053729746 0.0049176565 9.219563e-39
0.0081122415 0.0065829176 0.0054388037 9.219563e-39
0.0081144441 0.0065826005 0.0048600929 9.219563e-39
0.013261409 0.0058421232 0.0069730077 9.219563e-39
0.0054243309 0.0069696186 0.0082319221 9.219563e-39
0.011327958 0.0061202827 0.0067043575 9.219563e-39
0.010852309 0.0061887125 0.0063162246 9.219563e-39
0.01076158 0.0062017655 0.0053775362 9.219563e-39
0.011778023 0.0060555334 0.003214722 9.219563e-39
0.013866277 0.0057551027 0.008644158 9.219563e-39
0.016460188 0.0053819246 0.0058233715 9.219563e-39
0.013244893 0.005844499 0.0035383869 9.219563e-39
0.0058786427 0.0069042584 0.0050560101 9.219563e-39
0.005306867 0.0069865179 0.011240128 9.219563e-39
0.012648251 0.0059303362 0.0027544033 9.219563e-39
0.016501123 0.0053760358 0.0041680885 9.219563e-39
0.0069351178 0.0067522665 0.0084575769 9.219563e-39
0.0070087439 0.0067416742 0.0089862989 9.219563e-39
0.008753472 0.006490666 0.0026733247 9.219563e-39
0.0095667392 0.0063736634 0.00822875 9.219563e-39
0.015071 0.0055817831 0.0032282779 9.219563e-39
0.0157429 0.0054851188 0.0085365092 9.219563e-39
0.018574998 0.0050776736 0.0055162525 9.219563e-39
0.015900759 0.0054624081 0.0060086306 9.219563e-39
0.0072982535 0.0067000235 0.0080378223 9.219563e-39
0.0048669646 0.0070498055 0.007884982 9.219563e-39
0.017526889 0.0052284622 0.0043284567 9.219563e-39
0.0052410807 0.0069959825 0.0067565781 9.219563e-39
0.013769279 0.0057690572 0.0041730213 9.219563e-39
0.01448525 0.0056660529 0.0066691735 9.219563e-39
0.02047175 0.0048047942 0.0049772118 9.219563e-39
0.0096992673 0.0063545969 0.0031945289 9.219563e-39
0.018987687 0.0050183013 0.0067594284 9.219563e-39
0.012921556 0.0058910167 0.0068652476 9.219563e-39
0.005644389 0.0069379597 0.0066403509 9.219563e-39
0.014300648 0.005692611 0.0096106604 9.219563e-39
0.015065557 0.0055825659 0.0038632571 9.219563e-39
0.0064736977 0.0068186498 0.0031451765 9.219563e-39
0.0092196092 0.0064236042 0.0033574088 9.219563e-39
0.017986959 0.0051622731 0.0068116332 9.219563e-39
0.0082146851 0.0065681795 0.011318406 9.219563e-39
0.012218501 0.005992163 0.010101708 9.219563e-39
0.014120541 0.0057185227 0.0031778552 9.219563e-39
0.017946756 0.005168057 0.0065219486 9.219563e-39
0.011252061 0.0061312015 0.0084476396 9.219563e-39
0.010195787 0.0062831645 0.0096370494 9.219563e-39
0.008776335 0.0064873765 0.0099779377 9.219563e-39
0.020394508 0.0048159068 0.0053623556 9.219563e-39
0.015234973 0.0055581927 0.0053731585 9.219563e-39
0.012577311 0.0059405421 0.0061091478 9.219563e-39
0.011294435 0.0061251055 0.0023644003 9.219563e-39
0.004897269 0.0070454455 0.011585535 9.219563e-39
0.010483014 0.0062418422 0.0096169002 9.219563e-39
0.0097332355 0.0063497103 0.0041692927 9.219563e-39
0.009831422 0.0063355844 0.0097559961 9.219563e-39
0.0084533207 0.0065338477 0.0088522593 9.219563e-39
0.015444403 0.0055280626 0.0046098018 9.219563e-39
0.013163358 0.0058562295 0.0059080808 9.219563e-39
0.01086851 0.0061863819 0.0074524106 9.219563e-39
0.0083259894 0.0065521663 0.0073878812 9.219563e-39
0.015394459 0.0055352477 0.006777768 9.219563e-39
0.019187259 0.00498959 0.0052934457 9.219563e-39
0.010390819 0.0062551056 0.0088785402 9.219563e-39
0.014118218 0.0057188566 0.0092540793 9.219563e-39
0.018311579 0.005115571 0.0042298194 9.219563e-39
0.0052479883 0.0069949888 0.0024827798 9.219563e-39
0.0095648551 0.0063739344 0.0068604513 9.219563e-39
0.016436713 0.0053853025 0.0075371736 9.219563e-39
0.011207471 0.0061376169 0.0045000538 9.219563e-39
0.0094200186 0.0063947719 0.003226815 9.219563e-39
0.012515595 0.0059494209 0.0067046941 9.219563e-39
0.007801638 0.006627603 0.0017796984 9.219563e-39
0.01242733 0.0059621194 0.0095237298 9.219563e-39
0.019836664 0.0048961621 0.0054365587 9.219563e-39
0.015893558 0.0054634442 0.0041155391 9.219563e-39
0.014030408 0.0057314895 0.0047317208 9.219563e-39
0.018347032 0.0051104706 0.0056084013 9.219563e-39
0.0077394308 0.0066365525 0.0074422699 9.219563e-39
0.019578207 0.0049333451 0.0059144427 9.219563e-39
0.016527386 0.0053722574 0.0071801045 9.219563e-39
0.0080130836 0.0065971832 0.0091555081 9.219563e-39
0.0082357116 0.0065651545 0.003236823 9.219563e-39
0.016541673 0.005370202 0.0085470667 9.219563e-39
0.018821103 0.0050422675 0.0065679988 9.219563e-39
0.01370291 0.0057786056 0.0060821176 9.219563e-39
0.0096855899 0.0063565648 0.008759642 9.219563e-39
0.013423824 0.0058187572 0.0072129816 9.219563e-39
0.013531838 0.0058032176 0.003780667 9.219563e-39
0.0066912519 0.0067873509 0.0098302281 9.219563e-39
0.010679089 0.0062136333 0.007641119 9.219563e-39
0.017646058 0.0052113174 0.006857466 9.219563e-39
0.0092555918 0.0064184275 0.010769713 9.219563e-39
0.021493923 0.0046577374 0.0059915511 9.219563e-39
0.018231407 0.0051271054 0.0072499313 9.219563e-39
0.012825808 0.0059047914 0.0045231683 9.219563e-39
0.0063537722 0.006835903 0.0059711039 9.219563e-39
0.0047800955 0.0070623029 0.00026964149 9.219563e-39
0.011647736 0.0060742772 0.0062883827 9.219563e-39
0.018347992 0.0051103323 0.007659927 9.219563e-39
0.010426589 0.0062499596 0.0099548595 9.219563e-39
0.0098531246 0.0063324622 0.0028850522 9.219563e-39
0.0097759478 0.0063435654 0.0090094144 9.219563e-39
0.0051948032 0.00700264 0.0053327414 9.219563e-39
0.015950743 0.0054552173 0.0080624372 9.219563e-39
0.0059018251 0.0069009233 0.0028480703 9.219563e-39
0.017034955 0.0052992348 0.0076924511 9.219563e-39
0.0058736466 0.0069049774 0.012119475 9.219563e-39
0.019603366 0.0049297255 0.0047165263 9.219563e-39
0.014441106 0.0056724041 0.006241315 9.219563e-39
0.013673656 0.0057828142 0.0063782232 9.219563e-39
0.020270938 0.0048336843 0.0067943609 9.219563e-39
0.0064561036 0.0068211807 0.0099751633 9.219563e-39
0.013022372 0.0058765123 0.0050230199 9.219563e-39
0.011541095 0.0060896194 0.0051703406 9.219563e-39
0.010459544 0.0062452187 0.0073670493 9.219563e-39
0.0077333334 0.0066374298 0.0044625574 9.219563e-39
0.016206576 0.0054184115 0.0052152514 9.219563e-39
0.012241628 0.0059888358 0.003087396 9.219563e-39
0.013370108 0.0058264849 0.0052804057 9.219563e-39
0.0058786958 0.0069042505 0.01081892 9.219563e-39
0.013493386 0.0058087492 0.0076487367 9.219563e-39
0.014620772 0.0056465557 0.0034106572 9.219563e-39
0.012670217 0.0059271762 0.0064508626 9.219563e-39
0.0065877568 0.0068022404 0.0051243855 9.219563e-39
0.020937987 0.004737718 0.0058929203 9.219563e-39
0.0079238629 0.0066100191 0.010473558 9.219563e-39
0.0082623828 0.006561317 0.0029556034 9.219563e-39
0.0053078434 0.0069863773 0.0039184391 9.219563e-39
0.020722715 0.0047686887 0.0068516904 9.219563e-39
0.022203173 0.0045556994 0.0064333132 9.219563e-39
0.005250657 0.0069946046 0.007132309 9.219563e-39
0.0095176082 0.0063807317 0.0020177092 9.219563e-39
0.012066869 0.0060139778 0.0049256003 9.219563e-39
0.011599053 0.0060812812 0.0057302588 9.219563e-39
0.010334398 0.006263223 0.0062797102 9.219563e-39
0.023934815 0.0043065739 0.006124319 9.219563e-39
0.0083697578 0.0065458696 0.0069471616 9.219563e-39
0.0068003088 0.0067716613 0.0064899246 9.219563e-39
0.020096943 0.0048587164 0.0064535104 9.219563e-39
0.013263461 0.005841828 0.0049854415 9.219563e-39
0.015764371 0.0054820296 0.005579425 9.219563e-39
0.017216029 0.0052731847 0.0054570767 9.219563e-39
0.01441066 0.0056767841 0.0044496683 9.219563e-39
0.0064312965 0.00682475 0.004116036 9.219563e-39
0.005345962 0.0069808937 0.0030979181 9.219563e-39
0.021497969 0.0046571554 0.0053137881 9.219563e-39
0.0070298561 0.0067386371 0.0041068541 9.219563e-39
0.0060855635 0.0068744891 0.0023481254 9.219563e-39
0.015099051 0.0055777472 0.0087992391 9.219563e-39
0.0062590898 0.0068495246 0.0063992189 9.219563e-39
0.010302637 0.0062677921 0.0026319046 9.219563e-39
0.0087999664 0.0064839767 0.0018882205 9.219563e-39
0.0058374233 0.0069101886 0.01118656 9.219563e-39
0.018525895 0.0050847381 0.0068915496 9.219563e-39
0.0076166219 0.0066542206 0.0022160278 9.219563e-39
0.0094144261 0.0063955765 0.0084770452 9.219563e-39
0.014254948 0.0056991857 0.0056101554 9.219563e-39
0.01904008 0.0050107641 0.0059717847 9.219563e-39
0.0087031387 0.006497907 0.0064297863 9.219563e-39
0.0085507957 0.0065198243 0.0076310867 9.219563e-39
0.012889025 0.005895697 0.0073098517 9.219563e-39
0.006683249 0.006788502 0.0034035405 9.219563e-39
0.011153524 0.0061453781 0.009801087 9.219563e-39
0.015377901 0.0055376301 0.0059477012 9.219563e-39
0.012779652 0.0059114317 0.0097397938 9.219563e-39
0.0087101841 0.0064968932 0.006159896 9.219563e-39
0.0061628902 0.0068633645 0.00102618 9.219563e-39
0.020369139 0.0048195566 0.0063369414 9.219563e-39
0.005413882 0.0069711222 0.0042555993 9.219563e-39
0.015286022 0.0055508483 0.0072431196 9.219563e-39
0.011721211 0.0060637062 0.0094324024 9.219563e-39
0.0096938815 0.0063553718 0.01082574 9.219563e-39
0.0050807176 0.0070190532 0.0065805432 9.219563e-39
0.017571535 0.0052220388 0.0082056299 9.219563e-39
0.0097838053 0.0063424348 0.006662684 9.219563e-39
0.0060805958 0.0068752039 0.0086452877 9.219563e-39
0.0071573458 0.0067202952 0.0018830587 9.219563e-39
0.0082211895 0.0065672435 0.01047796 9.219563e-39
0.0106926 0.0062116897 0.0065288153 9.219563e-39
0.02074242 0.0047658538 0.006276675 9.219563e-39
0.024179498 0.0042713722 0.0060271616 9.219563e-39
0.010676526 0.0062140021 0.0022915076 9.219563e-39
0.01013337 0.0062921443 0.010357548 9.219563e-39
0.013585683 0.0057954709 0.0033042724 9.219563e-39
0.018174758 0.0051352549 0.0057957196 9.219563e-39
0.0047379639 0.0070683644 0.0027970287 9.219563e-39
0.0053509469 0.0069801761 0.0060927859 9.219563e-39
0.0061283563 0.0068683326 0.011912828 9.219563e-39
0.013027283 0.0058758059 0.0062578474 9.219563e-39
0.0058368091 0.0069102766 0.002482852 9.219563e-39
0.0056231786 0.0069410112 0.0083897896 9.219563e-39
0.0060945745 0.0068731927 0.0093825217 9.219563e-39
0.018672768 0.0050636078 0.0070936056 9.219563e-39
0.014752498 0.0056276047 0.0093574207 9.219563e-39
0.0052131345 0.007000003 0.0033179191 9.219563e-39
0.005526287 0.0069549507 0.011975837 9.219563e-39
0.013173058 0.0058548339 0.0072403122 9.219563e-39
0.0097204195 0.0063515543 0.0057489644 9.219563e-39
0.013996094 0.0057364265 0.0057141902 9.219563e-39
0.01603164 0.0054435791 0.0077805617 9.219563e-39
0.015747795 0.0054844148 0.0082129072 9.219563e-39
0.012040097 0.0060178293 0.0089744506 9.219563e-39
0.0090260413 0.0064514522 0.0048691127 9.219563e-39
0.010441306 0.0062478422 0.0017860068 9.219563e-39
0.0064640171 0.0068200426 0.0055699768 9.219563e-39
0.0089169098 0.0064671524 0.0044893697 9.219563e-39
0.0071684876 0.0067186924 0.0065445015 9.219563e-39
0.0063552917 0.0068356842 0.0094761532 9.219563e-39
0.0068129092 0.0067698485 0.0014370169 9.219563e-39
0.014233364 0.0057022911 0.0072499178 9.219563e-39
0.011566441 0.0060859728 0.0085486388 9.219563e-39
0.0049206219 0.0070420858 0.0057696262 9.219563e-39
0.0086802617 0.0065011983 0.0078480439 9.219563e-39
0.0052991416 0.0069876295 0.011810926 9.219563e-39
0.0067381915 0.0067805978 0.00068606465 9.219563e-39
0.011074481 0.0061567496 0.010025012 9.219563e-39
0.00805471 0.0065911943 0.0017630768 9.219563e-39
0.022521645 0.0045098821 0.006522065 9.219563e-39
0.0083690435 0.0065459721 0.0041815774 9.219563e-39
0.0098031992 0.006339645 0.0021924945 9.219563e-39
0.0068932283 0.0067582931 0.00093993801 9.219563e-39
0.0080099907 0.0065976279 0.0062609091 9.219563e-39
0.010760042 0.0062019867 0.0045146765 9.219563e-39
0.013367332 0.0058268844 0.0087388149 9.219563e-39
0.0090847285 0.0064430088 0.0087828236 9.219563e-39
0.0069297478 0.0067530391 0.0080979429 9.219563e-39
0.01658983 0.0053632734 0.0054614143 9.219563e-39
0.0061773821 0.0068612797 0.0030960159 9.219563e-39
0.011515302 0.0060933302 0.0064928564 9.219563e-39
0.0063666599 0.0068340488 0.0047429265 9.219563e-39
0.0064045661 0.0068285954 0.010659481 9.219563e-39
0.0069390479 0.0067517012 0.011235052 9.219563e-39
0.007769092 0.0066322852 0.00866652 9.219563e-39
0.0088740001 0.0064733257 0.005096938 9.219563e-39
0.01467244 0.0056391223 0.0044586421 9.219563e-39
0.0084996913 0.0065271766 0.0016160229 9.219563e-39
0.0082195448 0.00656748 0.0025560232 9.219563e-39
0.01058588 0.006227043 0.0036915259 9.219563e-39
0.0052614319 0.0069930544 0.012045927 9.219563e-39
0.017324688 0.005257552 0.0084296968 9.219563e-39
0.010041544 0.0063053546 0.0044359518 9.219563e-39
0.020503812 0.0048001818 0.0060782442 9.219563e-39
0.0064949123 0.0068155974 0.00059177622 9.219563e-39
0.013311706 0.0058348873 0.009966325 9.219563e-39
0.0066282875 0.0067964094 0.0048772227 9.219563e-39
0.0095044337 0.0063826274 0.0093603469 9.219563e-39
0.016924344 0.0053151483 0.0074700019 9.219563e-39
0.019561978 0.0049356804 0.0051165875 9.219563e-39
0.011280127 0.0061271638 0.0074327593 9.219563e-39
0.01321598 0.0058486587 0.0031856787 9.219563e-39
0.0085358331 0.0065219766 0.0083432691 9.219563e-39
0.0072082798 0.0067129675 0.0013700923 9.219563e-39
0.011707262 0.0060657132 0.0022344785 9.219563e-39
0.010153089 0.0062893075 0.0017877405 9.219563e-39
0.0073171281 0.0066973078 0.008682346 9.219563e-39
0.013589477 0.0057949247 0.0097495019 9.219563e-39
0.0082738893 0.0065596616 0.0014109868 9.219563e-39
0.0082464488 0.0065636095 0.0076113944 9.219563e-39
0.0070011811 0.0067427624 0.0068449252 9.219563e-39
0.013860133 0.0057559866 0.0050569973 9.219563e-39
0.018578412 0.0050771828 0.0063581308 9.219563e-39
0.01125082 0.0061313803 0.0094475504 9.219563e-39
0.0078187566 0.0066251401 0.0071064672 9.219563e-39
0.0075386721 0.0066654352 0.002497941 9.219563e-39
0.0098970141 0.0063261478 0.0039150645 9.219563e-39
0.0059985486 0.006887008 0.0018199332 9.219563e-39
0.0071445284 0.0067221392 0.0023346965 9.219563e-39
0.012744388 0.0059165051 0.0070709125 9.219563e-39
0.0190644 0.0050072651 0.007714638 9.219563e-39
0.012721486 0.0059198001 0.0051102689 9.219563e-39
0.0061407802 0.0068665454 0.0058062538 9.219563e-39
0.0052983882 0.006987738 0.0099137351 9.219563e-39
0.0049328092 0.0070403325 0.011153433 9.219563e-39
0.006394627 0.0068300255 0.010407383 9.219563e-39
0.007074235 0.0067322524 0.0059190332 9.219563e-39
0.010683371 0.0062130173 0.0039395234 9.219563e-39
0.017631464 0.0052134171 0.0041141035 9.219563e-39
0.01559187 0.0055068471 0.0040337755 9.219563e-39
0.0094545893 0.0063897981 0.010074099 9.219563e-39
0.0090100635 0.0064537507 0.0038985366 9.219563e-39
0.0058170808 0.0069131153 0.0086745517 9.219563e-39
0.013286196 0.0058385571 0.0061578965 9.219563e-39
0.017097577 0.0052902256 0.0041780826 9.219563e-39
0.0057770214 0.0069188783 0.00099794974 9.219563e-39
0.005153039 0.0070086485 0.010394972 9.219563e-39
0.0090205707 0.0064522391 0.0060296776 9.219563e-39
0.02245827 0.0045189997 0.0054376698 9.219563e-39
0.014331152 0.0056882226 0.0087433411 9.219563e-39
0.012088116 0.0060109212 0.0070367479 9.219563e-39
0.016937003 0.0053133271 0.0045436304 9.219563e-39
0.012041095 0.0060176859 0.0076924702 9.219563e-39
0.015812034 0.0054751728 0.0038410882 9.219563e-39
0.006127018 0.0068685254 0.0088909734 9.219563e-39
0.0091490606 0.0064337538 0.0045957305 9.219563e-39
0.01525711 0.0055550081 0.009166331 9.219563e-39
0.0062396834 0.0068523167 0.012168009 9.219563e-39
0.017372776 0.0052506337 0.0067206891 9.219563e-39
0.0085327551 0.0065224194 0.010840042 9.219563e-39
0.016693894 0.0053483024 0.0060634203 9.219563e-39
0.005967834 0.0068914266 0.0097349891 9.219563e-39
0.0086401068 0.0065069753 0.00245237 9.219563e-39
0.012818743 0.0059058079 0.0084735379 9.219563e-39
0.009184449 0.0064286622 0.0051431623 9.219563e-39
0.011852082 0.0060448786 0.0038737329 9.219563e-39
0.021133276 0.0047096224 0.0066876882 9.219563e-39
0.0066993921 0.0067861797 0.0024528401 9.219563e-39
0.0090147741 0.0064530731 0.0021592579 9.219563e-39
0.010971144 0.0061716163 0.009410413 9.219563e-39
0.010691153 0.0062118978 0.0079878848 9.219563e-39
0.012895579 0.0058947536 0.007902653 9.219563e-39
0.0079539111 0.0066056959 0.0076947408 9.219563e-39
0.0079688635 0.006603545 0.0045742444 9.219563e-39
0.010796733 0.0061967084 0.010704591 9.219563e-39
0.0049701817 0.0070349555 0.0060464619 9.219563e-39
0.0064844307 0.0068171057 0.0080034565 9.219563e-39
0.0055240816 0.0069552679 0.0008604817 9.219563e-39
0.015700081 0.0054912791 0.007073266 9.219563e-39
0.0063813971 0.0068319286 0.0073192497 9.219563e-39
0.0086526228 0.0065051746 0.0012520377 9.219563e-39
0.0080698254 0.0065890197 0.010017435 9.219563e-39
0.00608898 0.0068739979 0.012377175 9.219563e-39
0.022983165 0.0044434848 0.0062732692 9.219563e-39
0.011778926 0.0060554035 0.010269598 9.219563e-39
0.013062899 0.0058706822 0.0092272693 9.219563e-39
0.018585671 0.0050761383 0.0045163934 9.219563e-39
0.016938584 0.0053130994 0.005513595 9.219563e-39
0.021222629 0.0046967673 0.0059245084 9.219563e-39
0.0067077246 0.0067849811 0.0054155467 9.219563e-39
0.020505438 0.0047999476 0.0058317306 9.219563e-39
0.010143259 0.0062907217 0.009070741 9.219563e-39
0.0095127709 0.0063814279 0.0017752083 9.219563e-39
0.0085991276 0.0065128705 0.011175909 9.219563e-39
0.011526615 0.0060917023 0.002855811 9.219563e-39
0.0055815238 0.0069470038 0.0038282436 9.219563e-39
0.0047813961 0.0070621157 0.0075046704 9.219563e-39
0.017355064 0.0052531818 0.005725685 9.219563e-39
0.0066649318 0.0067911376 0.0084972875 9.219563e-39
0.013407952 0.0058210404 0.0083640832 9.219563e-39
0.0089551248 0.0064616548 0.007063603 9.219563e-39
0.016050471 0.0054408694 0.0070025329 9.219563e-39
0.0060631223 0.006877718 0.0060689882 9.219563e-39
0.0091283144 0.0064367382 0.010276579 9.219563e-39
0.0087533798 0.006490679 0.0047269468 9.219563e-39
0.0074001434 0.006685365 0.0063898312 9.219563e-39
0.012737468 0.0059175007 0.0091156485 9.219563e-39
0.0091640698 0.0064315945 0.0065825386 9.219563e-39
0.009783376 0.0063424967 0.0044059926 9.219563e-39
0.012364195 0.0059712026 0.0082883919 9.219563e-39
0.0086038364 0.0065121935 0.011674145 9.219563e-39
0.0068109413 0.0067701316 0.0078840032 9.219563e-39
0.019423518 0.0049556 0.0065380228 9.219563e-39
0.0070535019 0.006735235 0.0031262373 9.219563e-39
0.017220527 0.0052725375 0.0069253156 9.219563e-39
0.010193327 0.0062835184 0.0070674899 9.219563e-39
0.0086296527 0.0065084794 0.0067636878 9.219563e-39
0.016038604 0.0054425769 0.0064661419 9.219563e-39
0.0097450679 0.0063480078 0.010559183 9.219563e-39
0.014667785 0.0056397924 0.0054034335 9.219563e-39
0.016309744 0.005403569 0.0078091715 9.219563e-39
0.0055833356 0.0069467435 0.0050991494 9.219563e-39
0.0055318614 0.0069541489 0.012571136 9.219563e-39
0.0080290865 0.0065948809 0.0085010882 9.219563e-39
0.0049985126 0.0070308801 0.00041675696 9.219563e-39
0.0055075767 0.0069576423 0.003578255 9.219563e-39
0.013197301 0.0058513461 0.0080214608 9.219563e-39
0.019542698 0.0049384539 0.0074348487 9.219563e-39
0.0168084 0.0053318287 0.0037568449 9.219563e-39
0.011734049 0.0060618594 0.0099332454 9.219563e-39
0.0075412602 0.0066650626 0.0079420311 9.219563e-39
0.0070027565 0.0067425356 0.0099691898 9.219563e-39
0.011982878 0.0060260613 0.009800802 9.219563e-39
0.014013882 0.0057338672 0.0062701553 9.219563e-39
0.018435033 0.0050978102 0.0079782465 9.219563e-39
0.01684572 0.0053264596 0.0063294596 9.219563e-39
0.0060416432 0.0068808082 0.0068341852 9.219563e-39
0.012051733 0.0060161552 0.0051950999 9.219563e-39
0.0093407575 0.006406175 0.0097174877 9.219563e-39
0.021327699 0.0046816515 0.0062260451 9.219563e-39
0.0049368553 0.0070397505 0.012907153 9.219563e-39
0.010690529 0.0062119877 0.0060656774 9.219563e-39
0.014216298 0.0057047461 0.0060711019 9.219563e-39
0.0071190195 0.0067258091 0.0092110122 9.219563e-39
0.0082849925 0.0065580644 0.0045739091 9.219563e-39
0.004921868 0.0070419065 0.0035472466 9.219563e-39
0.0048924801 0.0070461347 0.0089008342 9.219563e-39
0.0079309521 0.0066089989 0.0058282199 9.219563e-39
0.0053931992 0.0069740978 0.0065419096 9.219563e-39
0.0073487926 0.0066927527 0.0094764484 9.219563e-39
0.01133857 0.0061187558 0.0058031939 9.219563e-39
0.022747763 0.0044773514 0.0058812625 9.219563e-39
0.0075738453 0.0066603748 0.0048114434 9.219563e-39
0.012767662 0.005913157 0.0048044962 9.219563e-39
0.0094632413 0.0063885534 0.005305463 9.219563e-39
0.0084822904 0.0065296795 0.0065786992 9.219563e-39
0.011812771 0.0060505341 0.0091573689 9.219563e-39
0.00855383 0.0065193875 0.009576655 9.219563e-39
0.0056930822 0.0069309543 0.0032807356 9.219563e-39
0.0065217623 0.0068117348 0.0013810737 9.219563e-39
0.0099373627 0.0063203429 0.0069986512 9.219563e-39
0.011270621 0.0061285314 0.0031767711 9.219563e-39
0.019606683 0.0049292487 0.0068738386 9.219563e-39
0.0075810556 0.0066593378 0.0071648713 9.219563e-39
0.018848665 0.0050383024 0.0049132146 9.219563e-39
0.0099429367 0.0063195415 0.0063315183 9.219563e-39
0.0056064301 0.0069434205 0.00053958973 9.219563e-39
0.016499041 0.0053763352 0.0051883338 9.219563e-39
0.01097739 0.0061707175 0.0086649647 9.219563e-39
0.012624263 0.0059337872 0.0030903374 9.219563e-39
0.0076758708 0.0066456967 0.005070406 9.219563e-39
0.007211904 0.0067124465 0.011254594 9.219563e-39
0.013132147 0.0058607194 0.0085805319 9.219563e-39
0.0068158256 0.006769429 0.0094564296 9.219563e-39
0.005494379 0.0069595412 0.0070986678 9.219563e-39
0.0063995966 0.0068293102 0.0033873005 9.219563e-39
0.0052086934 0.0070006419 0.010827045 9.219563e-39
0.0078951307 0.0066141528 0.0041236011 9.219563e-39
0.0073622908 0.0066908104 0.0021502597 9.219563e-39
0.015984945 0.0054502967 0.0085961809 9.219563e-39
0.010809978 0.0061948029 0.010035725 9.219563e-39
0.0078973994 0.0066138264 0.0052729337 9.219563e-39
0.019178733 0.0049908161 0.0065930453 9.219563e-39
0.012615477 0.0059350515 0.0078784982 9.219563e-39
0.01624226 0.0054132775 0.0085298726 9.219563e-39
0.013434956 0.0058171554 0.0043051029 9.219563e-39
0.0080284188 0.0065949769 0.002849113 9.219563e-39
0.0087670544 0.0064887116 0.010733436 9.219563e-39
0.012778469 0.0059116022 0.010036838 9.219563e-39
0.005067124 0.007021009 0.0075761508 9.219563e-39
0.017933037 0.0051700305 0.0044919141 9.219563e-39
0.011427386 0.0061059785 0.0026162502 9.219563e-39
0.012143091 0.0060030119 0.0063667297 9.219563e-39
0.0095347604 0.0063782642 0.0076393224 9.219563e-39
0.0084755281 0.0065306528 0.0052821236 9.219563e-39
0.011300853 0.0061241821 0.010487314 9.219563e-39
0.014351452 0.005685302 0.0082202125 9.219563e-39
0.020524876 0.0047971513 0.0073412871 9.219563e-39
0.0075361016 0.0066658049 0.0027625149 9.219563e-39
0.017353652 0.0052533853 0.0073949592 9.219563e-39
0.0073462408 0.0066931196 0.0060976651 9.219563e-39
0.0047958726 0.0070600333 0.0014618831 9.219563e-39
0.010592354 0.0062261117 0.0048058904 9.219563e-39
0.011811473 0.0060507208 0.0027301577 9.219563e-39
0.01200384 0.0060230456 0.0082429377 9.219563e-39
0.013803222 0.0057641743 0.0096002556 9.219563e-39
0.013121699 0.005862223 0.0038725473 9.219563e-39
0.019822959 0.0048981337 0.0058445632 9.219563e-39
0.014464235 0.0056690765 0.003617801 9.219563e-39
0.012224592 0.0059912866 0.0073347958 9.219563e-39
0.012785517 0.0059105884 0.003418749 9.219563e-39
0.0075461371 0.0066643613 0.0084196785 9.219563e-39
0.016729986 0.0053431098 0.004336284 9.219563e-39
0.0051969979 0.0070023243 0.0058618728 9.219563e-39
0.013689247 0.0057805711 0.0044510528 9.219563e-39
0.0069095166 0.0067559499 0.0049421689 9.219563e-39
0.016137067 0.0054284111 0.0042491215 9.219563e-39
0.010498741 0.0062395795 0.0078069442 9.219563e-39
0.016161935 0.0054248334 0.0039462587 9.219563e-39
0.0049550002 0.00703714 0.00630617 9.219563e-39
0.0077498918 0.0066350475 0.0080952467 9.219563e-39
0.012394101 0.0059668999 0.0063315248 9.219563e-39
0.012179635 0.0059977546 0.0038179597 9.219563e-39
0.013285849 0.005838607 0.0055168704 9.219563e-39
0.011301242 0.0061241263 0.01021309 9.219563e-39
0.0081634196 0.0065755546 0.0093652643 9.219563e-39
0.010194518 0.006283347 0.0067671635 9.219563e-39
0.01836496 0.0051078913 0.0047365469 9.219563e-39
0.01674531 0.0053409049 0.0084134554 9.219563e-39
0.006925839 0.0067536016 0.0035363201 9.219563e-39
0.005116926 0.0070138443 0.0043362952 9.219563e-39
0.013933686 0.0057454049 0.0070257252 9.219563e-39
0.0051605022 0.0070075751 0.005589331 9.219563e-39
0.0057799141 0.006918462 0.0021474408 9.219563e-39
0.014899261 0.0056064907 0.0077830255 9.219563e-39
0.0072000232 0.0067141554 0.0026161298 9.219563e-39
0.012670267 0.0059271688 0.0082365554 9.219563e-39
0.0098345513 0.0063351342 0.001647308 9.219563e-39
0.012370202 0.0059703384 0.0090641445 9.219563e-39
0.012387425 0.0059678606 0.008816937 9.219563e-39
0.011672834 0.0060706665 0.010527389 9.219563e-39
0.014858332 0.0056123789 0.0069293021 9.219563e-39
0.0067127803 0.0067842538 0.0040955837 9.219563e-39
0.01660881 0.0053605428 0.0069041019 9.219563e-39
0.0054131369 0.0069712293 0.0011303825 9.219563e-39
0.011775859 0.0060558445 0.0065549994 9.219563e-39
0.0096763512 0.0063578938 0.0048851687 9.219563e-39
0.017899774 0.0051748161 0.0049549057 9.219563e-39
0.01107072 0.0061572907 0.005779997 9.219563e-39
0.0094808722 0.006386017 0.0043017529 9.219563e-39
0.0060822889 0.0068749604 0.0041225636 9.219563e-39
0.0080155618 0.0065968265 0.0073910933 9.219563e-39
0.017074186 0.0052935909 0.0038696283 9.219563e-39
0.0087367138 0.0064930767 0.0014839392 9.219563e-39
0.014823429 0.0056174002 0.0072135315 9.219563e-39
0.013032906 0.005874997 0.0089348182 9.219563e-39
0.005910377 0.006899693 0.0005155328 9.219563e-39
0.013488086 0.005809512 0.004036502 9.219563e-39
0.013546476 0.0058011115 0.0066695744 9.219563e-39
0.014510466 0.0056624254 0.0079199709 9.219563e-39
0.0079680532 0.0066036615 0.01169469 9.219563e-39
0.0055428119 0.0069525731 0.0090646055 9.219563e-39
0.005888714 0.0069028093 0.011586882 9.219563e-39
0.0059474776 0.0068943552 0.0032421739 9.219563e-39
0.0090031605 0.0064547439 0.0090460014 9.219563e-39
0.017349711 0.005253952 0.0041089104 9.219563e-39
0.0066356547 0.0067953495 0.011073917 9.219563e-39
0.0065344726 0.0068099061 0.0065550916 9.219563e-39
0.0060470598 0.0068800286 0.01058658 9.219563e-39
0.0065312218 0.0068103736 0.0010022863 9.219563e-39
0.0049532605 0.00703739 0.012000851 9.219563e-39
0.013549719 0.0058006449 0.009348616 9.219563e-39
0.0053949016 0.0069738529 0.0055293464 9.219563e-39
0.014838503 0.0056152316 0.0039957557 9.219563e-39
0.011782518 0.0060548866 0.0050820154 9.219563e-39
0.014639027 0.0056439294 0.0037869245 9.219563e-39
0.0063101971 0.0068421718 0.011703225 9.219563e-39
0.0068434905 0.006765449 0.0046936236 9.219563e-39
0.012758791 0.0059144329 0.0055805403 9.219563e-39
0.018275445 0.0051207696 0.0069761244 9.219563e-39
0.011757424 0.0060584969 0.0087983785 9.219563e-39
0.010011768 0.0063096387 0.0023738348 9.219563e-39
0.017188424 0.0052771559 0.005112303 9.219563e-39
0.010512371 0.0062376186 0.0086506614 9.219563e-39
0.016674889 0.0053510363 0.004727181 9.219563e-39
0.013788411 0.0057663047 0.0093208486 9.219563e-39
0.015811473 0.0054752533 0.0035752926 9.219563e-39
0.01054049 0.006233573 0.0057768561 9.219563e-39
0.0088626761 0.006474955 0.0082656471 9.219563e-39
0.0096591767 0.0063603651 0.0024328402 9.219563e-39
0.010299427 0.006268254 0.0081695793 9.219563e-39
0.018727306 0.0050557619 0.0052458108 9.219563e-39
0.014849673 0.0056136246 0.0088849571 9.219563e-39
0.0063306582 0.0068392283 0.0053143841 9.219563e-39
0.0088079637 0.0064828261 0.0056789606 9.219563e-39
0.014620633 0.0056465757 0.0050407602 9.219563e-39
0.011584857 0.0060833232 0.004915697 9.219563e-39
0.01242962 0.0059617897 0.0077183722 9.219563e-39
0.017436547 0.0052414592 0.0071456241 9.219563e-39
0.0048913085 0.0070463028 0.0082556717 9.219563e-39
0.0057905978 0.0069169253 0.0080748182 9.219563e-39
0.010652092 0.0062175174 0.0051550376 9.219563e-39
0.0092108445 0.0064248648 0.0070101777 9.219563e-39
0.013051815 0.0058722766 0.0065612532 9.219563e-39
0.0092274919 0.0064224699 0.002589473 9.219563e-39
0.0068363915 0.0067664701 0.0043127663 9.219563e-39
0.015485269 0.0055221831 0.0080265673 9.219563e-39
0.012499768 0.0059516979 0.0047547356 9.219563e-39
0.0079135587 0.0066115013 0.0093896193 9.219563e-39
0.017129235 0.005285671 0.0059805014 9.219563e-39
0.011831944 0.0060477755 0.0085526342 9.219563e-39
0.011001048 0.006167314 0.0052285194 9.219563e-39
0.016291907 0.0054061348 0.0065310998 9.219563e-39
0.02328792 0.0043996405 0.006275679 9.219563e-39
0.0076395283 0.0066509251 0.0062372652 9.219563e-39
0.019291606 0.0049745776 0.0059875795 9.219563e-39
0.0074743428 0.0066746902 0.0074091395 9.219563e-39
0.013210273 0.0058494797 0.0029487011 9.219563e-39
0.0071349419 0.0067235185 0.012049725 9.219563e-39
0.0097081438 0.0063533201 0.0079300217 9.219563e-39
0.014606284 0.00564864 0.0086508552 9.219563e-39
0.0108358 0.0061910879 0.0057901167 9.219563e-39
0.021890718 0.0046006516 0.0064998935 9.219563e-39
0.0053731985 0.0069769751 0.0077667674 9.219563e-39
0.012464767 0.0059567336 0.0051416084 9.219563e-39
0.01238773 0.0059678163 0.0071469955 9.219563e-39
0.0063957912 0.0068298578 0.010925142 9.219563e-39
0.013360171 0.0058279145 0.0096834777 9.219563e-39
0.005126718 0.0070124352 0.0028169344 9.219563e-39
0.0054890742 0.0069603045 0.0075091645 9.219563e-39
0.015221095 0.0055601895 0.0080116708 9.219563e-39
0.016905023 0.0053179278 0.007207626 9.219563e-39
0.0064165154 0.0068268762 0.012353167 9.219563e-39
0.014287236 0.0056945407 0.0064668306 9.219563e-39
0.018820455 0.0050423606 0.005500007 9.219563e-39
0.01676096 0.0053386539 0.0050561535 9.219563e-39
0.0085246312 0.0065235882 0.0035555996 9.219563e-39
0.016330369 0.0054006013 0.0062709036 9.219563e-39
0.005758638 0.0069215233 0.0046695881 9.219563e-39
0.023515567 0.0043668896 0.0058263224 9.219563e-39
0.011302168 0.0061239931 0.0077401735 9.219563e-39
0.0077070151 0.0066412161 0.0055094128 9.219563e-39
0.0054560634 0.0069650533 0.0017663694 9.219563e-39
0.016162146 0.0054248031 0.0082621705 9.219563e-39
0.0049559008 0.0070370105 0.0012514949 9.219563e-39
0.0094644334 0.0063883821 0.0089328317 9.219563e-39
0.021086197 0.0047163954 0.0061431932 9.219563e-39
0.017406752 0.0052457456 0.0046084546 9.219563e-39
0.0051135742 0.0070143263 0.0037214539 9.219563e-39
0.0061974246 0.0068583963 0.003668705 9.219563e-39
0.010361568 0.0062593143 0.0037841604 9.219563e-39
0.0174118 0.0052450197 0.005975998 9.219563e-39
0.0059071658 0.006900155 0.0035661417 9.219563e-39
0.011015215 0.0061652758 0.0048633628 9.219563e-39
0.0053388984 0.0069819097 0.00060364883 9.219563e-39
0.011046458 0.0061607813 0.0071776332 9.219563e-39
0.0057169404 0.0069275219 0.0054610227 9.219563e-39
0.016368696 0.0053950874 0.0069894292 9.219563e-39
0.018349983 0.0051100459 0.0062158573 9.219563e-39
0.017996017 0.0051609701 0.0074391467 9.219563e-39
0.014628935 0.0056453818 0.0041498798 9.219563e-39
0.0076985173 0.0066424389 0.0068409778 9.219563e-39
0.022138804 0.00456496 0.0061214333 9.219563e-39
0.013892612 0.0057513141 0.0029837817 9.219563e-39
0.018306749 0.0051162662 0.0066908868 9.219563e-39
0.01935298 0.0049657477 0.0077063702 9.219563e-39
0.012589408 0.0059388019 0.0074925413 9.219563e-39
0.0088438261 0.0064776666 0.0075639044 9.219563e-39
0.016190184 0.0054207696 0.0068064523 9.219563e-39
0.012713565 0.0059209396 0.008866569 9.219563e-39
0.010272937 0.006272065 0.0049167364 9.219563e-39
0.017495055 0.0052330419 0.0048673092 9.219563e-39
0.0095742401 0.0063725845 0.011056391 9.219563e-39
0.017009657 0.0053028744 0.0081400638 9.219563e-39
0.0075438325 0.0066646929 0.0016946497 9.219563e-39
0.010503473 0.0062388987 0.0067082793 9.219563e-39
0.0098265437 0.0063362862 0.0026414348 9.219563e-39
0.015601487 0.0055054636 0.0061316011 9.219563e-39
0.0097237956 0.0063510682 0.0051827948 9.219563e-39
0.010789396 0.0061977636 0.0085074604 9.219563e-39
0.0054756654 0.0069622332 0.0079914024 9.219563e-39
0.0071031479 0.0067280927 0.0071748658 9.219563e-39
0.013454454 0.0058143502 0.0047660284 9.219563e-39
0.013654448 0.0057855779 0.0083306748 9.219563e-39
0.014344521 0.0056862989 0.0032630253 9.219563e-39
0.015530188 0.0055157212 0.006368415 9.219563e-39
0.015323173 0.0055455035 0.0039351988 9.219563e-39
0.014032094 0.0057312469 0.0074892719 9.219563e-39
0.005000683 0.0070305676 0.0030365053 9.219563e-39
0.006263162 0.0068489388 0.0021549072 9.219563e-39
0.0051252726 0.0070126434 0.0078105456 9.219563e-39
0.005033839 0.0070257974 0.0097721238 9.219563e-39
0.015795641 0.0054775313 0.0063499445 9.219563e-39
0.013064856 0.0058704005 0.0099063162 9.219563e-39
0.018157916 0.0051376778 0.0049769413 9.219563e-39
0.0073116049 0.0066981027 0.0044848039 9.219563e-39
0.011279365 0.0061272737 0.0028012665 9.219563e-39
0.004895132 0.0070457528 0.0050386577 9.219563e-39
0.01088397 0.0061841579 0.0077777733 9.219563e-39
0.0095663369 0.0063737216 0.0072166016 9.219563e-39
0.012857249 0.0059002684 0.0029082575 9.219563e-39
0.0098264236 0.0063363034 0.007327849 9.219563e-39
0.0058205216 0.0069126203 0.01039523 9.219563e-39
0.01496596 0.0055968948 0.0084417779 9.219563e-39
0.010113418 0.0062950146 0.0055035055 9.219563e-39
0.007051765 0.006735485 0.011003474 9.219563e-39
0.011056314 0.0061593633 0.0029887345 9.219563e-39
0.013996191 0.0057364125 0.0044481084 9.219563e-39
0.011732403 0.0060620965 0.0068574934 9.219563e-39
0.0067770421 0.0067750085 0.0020440978 9.219563e-39
0.0089129815 0.0064677177 0.005448394 9.219563e-39
0.014822345 0.0056175562 0.0063604554 9.219563e-39
0.0078882882 0.0066151368 0.0096849278 9.219563e-39
0.0070314067 0.0067384141 0.011559107 9.219563e-39
0.02378126 0.0043286653 0.0058817961 9.219563e-39
0.01213811 0.0060037286 0.0060576135 9.219563e-39
0.0076598884 0.0066479961 0.0038692844 9.219563e-39
0.018477544 0.0050916942 0.005108559 9.219563e-39
0.012146105 0.0060025784 0.0067193643 9.219563e-39
0.013188922 0.0058525517 0.0076936865 9.219563e-39
0.0054941326 0.0069595766 0.011406055 9.219563e-39
0.0055998163 0.0069443723 0.0028086228 9.219563e-39
0.014438894 0.0056727221 0.0052692941 9.219563e-39
0.016011067 0.0054465383 0.0053962213 9.219563e-39
0.014373384 0.0056821466 0.0049902326 9.219563e-39
0.015806822 0.0054759225 0.0048605115 9.219563e-39
0.018869152 0.0050353548 0.0045162556 9.219563e-39
0.0098970663 0.0063261404 0.0053710402 9.219563e-39
0.0078054988 0.0066270479 0.011446948 9.219563e-39
0.0080421101 0.0065930071 0.0013372252 9.219563e-39
0.014945136 0.0055998904 0.0046611675 9.219563e-39
0.0072311708 0.0067096744 0.0034543388 9.219563e-39
0.019524163 0.0049411207 0.0071897246 9.219563e-39
0.0070533082 0.0067352629 0.0053195069 9.219563e-39
0.010411867 0.0062520779 0.0055272128 9.219563e-39
0.0051293052 0.0070120632 0.0090091471 9.219563e-39
0.010264433 0.0062732887 0.007644237 9.219563e-39
0.0068870182 0.0067591867 0.0012009353 9.219563e-39
0.020934729 0.004738187 0.0065508196 9.219563e-39
0.011121596 0.0061499714 0.0020866184 9.219563e-39
0.0060435534 0.006880533 0.0026001811 9.219563e-39
0.004804668 0.0070587676 0.010120599 9.219563e-39
0.015312465 0.0055470443 0.006248787 9.219563e-39
0.016343582 0.0053987005 0.0080683883 9.219563e-39
0.015137157 0.005572265 0.0049202619 9.219563e-39
0.0092530046 0.0064187995 0.0091700293 9.219563e-39
0.020171363 0.0048480099 0.0072690221 9.219563e-39
0.013727304 0.0057750964 0.0072267135 9.219563e-39
0.014943759 0.0056000887 0.0060216216 9.219563e-39
0.0096971337 0.0063549043 0.010048984 9.219563e-39
0.013761214 0.0057702176 0.0058064098 9.219563e-39
0.011465649 0.0061004735 0.0095644929 9.219563e-39
0.021683918 0.0046304031 0.0055799661 9.219563e-39
0.007160835 0.0067197932 0.010580771 9.219563e-39
0.011280969 0.0061270427 0.0054623904 9.219563e-39
0.008019533 0.0065962551 0.003737852 9.219563e-39
0.011143637 0.0061468002 0.0041539348 9.219563e-39
0.017788395 0.00519084 0.0052019423 9.219563e-39
0.010825503 0.0061925692 0.0035763585 9.219563e-39
0.012557516 0.0059433901 0.0092730373 9.219563e-39
0.013995067 0.0057365741 0.0090439562 9.219563e-39
0.014082793 0.0057239532 0.0087744482 9.219563e-39
0.010821408 0.0061931582 0.010288021 9.219563e-39
0.016157618 0.0054254546 0.0045189075 9.219563e-39
0.0095598819 0.0063746502 0.0038578266 9.219563e-39
0.015157066 0.0055694007 0.0057973992 9.219563e-39
0.012095287 0.0060098893 0.0057739685 9.219563e-39
0.0065639815 0.0068056607 0.0028322851 9.219563e-39
0.0049510538 0.0070377076 0.010800459 9.219563e-39
0.010853344 0.006188564 0.0025198588 9.219563e-39
0.0073359944 0.0066945939 0.0090266196 9.219563e-39
0.011660528 0.0060724369 0.0072842385 9.219563e-39
0.013899139 0.0057503749 0.0039710519 9.219563e-39
0.011784746 0.0060545658 0.008105956 9.219563e-39
0.016534792 0.005371192 0.0065487516 9.219563e-39
0.014573117 0.0056534116 0.005984216 9.219563e-39
0.0051423064 0.0070101926 0.0010842684 9.219563e-39
0.008486283 0.0065291054 0.0080917822 9.219563e-39
0.010303637 0.0062676482 0.0020421334 9.219563e-39
0.0060886857 0.0068740402 0.0079944991 9.219563e-39
0.015999049 0.0054482673 0.0057708751 9.219563e-39
0.022159606 0.0045619672 0.0056226137 9.219563e-39
0.0061291056 0.0068682251 0.0072569111 9.219563e-39
0.0051691663 0.0070063286 0.0081718648 9.219563e-39
0.017825689 0.0051854746 0.0060601253 9.219563e-39
0.011993581 0.0060245213 0.0054618241 9.219563e-39
0.006410691 0.0068277144 0.0019091485 9.219563e-39
0.0091629783 0.0064317514 0.0036790932 9.219563e-39
0.020694237 0.0047727856 0.0051107015 9.219563e-39
0.0076020518 0.006656317 0.009648636 9.219563e-39
0.0049622469 0.0070360973 0.0094905542 9.219563e-39
0.010014767 0.0063092071 0.010081764 9.219563e-39
0.011416291 0.0061075743 0.0041587995 9.219563e-39
0.016711216 0.0053458102 0.005765711 9.219563e-39
0.017694319 0.0052043744 0.0064342227 9.219563e-39
0.0099790003 0.0063143526 0.0041996986 9.219563e-39
0.010227918 0.0062785419 0.0086520305 9.219563e-39
0.0048514875 0.0070520318 0.0033011239 9.219563e-39
0.012100167 0.0060091871 0.0095510529 9.219563e-39
0.016286373 0.005406931 0.0054748682 9.219563e-39
0.0063896347 0.0068307435 0.0067905732 9.219563e-39
0.011400336 0.0061098696 0.0034592485 9.219563e-39
0.019777291 0.0049047037 0.0070707081 9.219563e-39
0.015326162 0.0055450737 0.0083247656 9.219563e-39
0.0076577323 0.0066483063 0.0064906748 9.219563e-39
0.0049607814 0.0070363083 0.00072019635 9.219563e-39
0.0070784772 0.0067316419 0.0043782331 9.219563e-39
0.0054097413 0.0069717178 0.01042302 9.219563e-39
0.009257311 0.0064181802 0.0041343118 9.219563e-39
0.0091530923 0.0064331735 0.0057964274 9.219563e-39
0.0062628146 0.0068489886 0.0070543978 9.219563e-39
0.0085084401 0.0065259179 0.0031350607 9.219563e-39
0.01731348 0.0052591641 0.0077412399 9.219563e-39
0.0073268064 0.0066959155 0.0047960151 9.219563e-39
0.0061203688 0.0068694819 0.00076150766 9.219563e-39
0.014478937 0.0056669614 0.0093187429 9.219563e-39
0.010726799 0.0062067695 0.0097947223 9.219563e-39
0.012635206 0.0059322128 0.0058639282 9.219563e-39
0.0098064123 0.0063391826 0.010284199 9.219563e-39
0.012996695 0.0058802064 0.0054815169 9.219563e-39
0.0072287582 0.0067100213 0.0069678025 9.219563e-39
0.0060720765 0.0068764295 0.01015335 9.219563e-39
0.009377216 0.0064009298 0.010367916 9.219563e-39
0.013706619 0.0057780719 0.0068932055 9.219563e-39
0.015078095 0.0055807624 0.0042520356 9.219563e-39
0.010449787 0.0062466222 0.010944864 9.219563e-39
0.010144795 0.0062905005 0.0047182958 9.219563e-39
0.010167936 0.0062871715 0.010795019 9.219563e-39
0.014964139 0.0055971565 0.006660766 9.219563e-39
0.011972295 0.006027584 0.0025445248 9.219563e-39
0.011008297 0.0061662714 0.0069351224 9.219563e-39
0.0049646734 0.0070357481 0.0085635725 9.219563e-39
0.01542952 0.0055302037 0.0070464285 9.219563e-39
0.0065122535 0.0068131029 0.0075859088 9.219563e-39
0.020162947 0.0048492206 0.005182304 9.219563e-39
0.0054773535 0.0069619906 0.0087276222 9.219563e-39
0.011119464 0.0061502778 0.0035836697 9.219563e-39
0.0048529305 0.0070518241 0.0055142725 9.219563e-39
0.0075330902 0.0066662384 0.0092987819 9.219563e-39
0.0065429551 0.0068086861 0.0093235523 9.219563e-39
0.012088526 0.0060108621 0.0044485033 9.219563e-39
0.010169548 0.0062869391 0.002945574 9.219563e-39
0.0076425439 0.0066504916 0.0089745345 9.219563e-39
0.0054294905 0.0069688763 0.012805807 9.219563e-39
0.01240189 0.0059657795 0.008565871 9.219563e-39
0.019524757 0.0049410351 0.0063119419 9.219563e-39
0.021390032 0.0046726838 0.0057156109 9.219563e-39
0.0211774 0.0047032745 0.005261532 9.219563e-39
0.016061673 0.0054392582 0.0048707444 9.219563e-39
0.005074976 0.0070198793 0.012408015 9.219563e-39
0.0084524285 0.0065339757 0.0062477719 9.219563e-39
0.018062221 0.0051514455 0.0076650563 9.219563e-39
0.0048132781 0.0070575289 0.0044580647 9.219563e-39
0.0077115037 0.0066405702 0.01171271 9.219563e-39
0.01741492 0.0052445703 0.0063189184 9.219563e-39
0.0083518298 0.0065484489 0.005037054 9.219563e-39
0.019268559 0.0049778935 0.0047049103 9.219563e-39
0.015768446 0.0054814434 0.0090418588 9.219563e-39
0.0085812332 0.0065154452 0.0028570259 9.219563e-39
0.0085815154 0.0065154047 0.00397183 9.219563e-39
0.012020594 0.0060206354 0.0042082071 9.219563e-39
0.0099476986 0.006318856 0.010968756 9.219563e-39
0.0093341991 0.0064071184 0.0063402518 9.219563e-39
0.0053492216 0.0069804243 0.0049780929 9.219563e-39
0.014735928 0.0056299889 0.0075743776 9.219563e-39
0.006925798 0.0067536077 0.010373205 9.219563e-39
0.019195899 0.0049883467 0.0050070891 9.219563e-39
0.014810081 0.0056193206 0.0081694154 9.219563e-39
0.0094920555 0.0063844081 0.0055624736 9.219563e-39
0.019880945 0.0048897914 0.0049174433 9.219563e-39
0.013963532 0.005741111 0.0077152834 9.219563e-39
0.014873771 0.0056101577 0.0051910123 9.219563e-39
0.0061217402 0.0068692849 0.0048322319 9.219563e-39
0.0048023034 0.007059108 0.0025478057 9.219563e-39
0.0074754418 0.0066745318 0.0042912527 9.219563e-39
0.0052044066 0.0070012584 0.012696926 9.219563e-39
0.007885159 0.006615587 0.011049584 9.219563e-39
0.022673953 0.0044879699 0.0062392019 9.219563e-39
0.0058713565 0.0069053066 0.005711535 9.219563e-39
0.015274481 0.0055525089 0.007573504 9.219563e-39
0.0089010708 0.0064694313 0.0067910277 9.219563e-39
0.011136575 0.0061478163 0.0060923896 9.219563e-39
0.004770522 0.0070636803 0.0047632651 9.219563e-39
0.010366812 0.0062585594 0.0052363579 9.219563e-39
0.0057483218 0.0069230073 0.012363629 9.219563e-39
0.010095406 0.006297606 0.0079526436 9.219563e-39
0.011560359 0.0060868477 0.010114127 9.219563e-39
0.0073866979 0.0066872993 0.0077561233 9.219563e-39
0.011961511 0.0060291351 0.0073465835 9.219563e-39
0.009572885 0.0063727796 0.0034612191 9.219563e-39
0.0075229616 0.0066676955 0.0052580619 9.219563e-39
0.021612065 0.0046407408 0.0062731584 9.219563e-39
0.0067777121 0.0067749121 0.0030272929 9.219563e-39
0.010434583 0.0062488094 0.0031175688 9.219563e-39
0.0091140186 0.006438795 0.0095869126 9.219563e-39
0.005717502 0.0069274413 0.0074269776 9.219563e-39
0.017424725 0.0052431598 0.0052631628 9.219563e-39
0.0077833086 0.00663024 0.010725314 9.219563e-39
0.008690225 0.006499765 0.00425576 9.219563e-39
0.0069156499 0.0067550675 0.0076074349 9.219563e-39
0.0073025823 0.0066994005 0.0039896173 9.219563e-39
0.0091676433 0.0064310804 0.0055082091 9.219563e-39
0.010522484 0.0062361634 0.010584118 9.219563e-39
0.010270738 0.0062723816 0.0023205269 9.219563e-39
0.011027604 0.0061634937 0.0033395777 9.219563e-39
0.013970776 0.0057400689 0.0081515685 9.219563e-39
0.011633141 0.0060763769 0.0043883347 9.219563e-39
0.0095412508 0.0063773305 0.0061222035 9.219563e-39
0.0086410437 0.0065068402 0.0059131095 9.219563e-39
0.014520226 0.005661021 0.0072596474 9.219563e-39
0.020156819 0.0048501021 0.0058192946 9.219563e-39
0.0080091534 0.0065977485 0.0087392461 9.219563e-39
0.019843468 0.0048951828 0.007441381 9.219563e-39
0.01364623 0.0057867602 0.0088530648 9.219563e-39
0.0091701169 0.0064307242 0.0014461318 9.219563e-39
0.010133027 0.0062921937 0.0059648454 9.219563e-39
0.021019647 0.0047259699 0.0069219456 9.219563e-39
0.010046821 0.0063045956 0.0082652429 9.219563e-39
0.014264585 0.0056977994 0.0042035095 9.219563e-39
0.0056101508 0.0069428855 0.0063622319 9.219563e-39
0.019497218 0.0049449969 0.0055671684 9.219563e-39
0.009421166 0.0063946065 0.0058015822 9.219563e-39
0.0085371044 0.006521794 0.0045963032 9.219563e-39
0.01792606 0.0051710345 0.0055566556 9.219563e-39
0.018630464 0.0050696945 0.0058220075 9.219563e-39
0.010500336 0.00623935 0.0071056173 9.219563e-39
0.015008821 0.0055907285 0.0073763095 9.219563e-39
0.0053307083 0.0069830879 0.0015054423 9.219563e-39
0.015525135 0.0055164481 0.007577701 9.219563e-39
0.011903246 0.0060375175 0.005920114 9.219563e-39
0.0071516391 0.0067211166 0.0082632592 9.219563e-39
0.0051863207 0.0070038605 0.0086505562 9.219563e-39
0.0059641208 0.0068919607 0.0083412351 9.219563e-39
0.0083195129 0.0065530981 0.0099887587 9.219563e-39
0.0091410717 0.006434903 0.0082014259 9.219563e-39
0.010762912 0.0062015741 0.0072049047 9.219563e-39
0.0070676352 0.0067332019 0.0086933635 9.219563e-39
0.014246582 0.0057003894 0.0079981191 9.219563e-39
0.0082080411 0.006569135 0.010218605 9.219563e-39
0.016604336 0.0053611868 0.0077579143 9.219563e-39
0.010794755 0.0061969929 0.0091196084 9.219563e-39
0.018660551 0.0050653657 0.0078329286 9.219563e-39
0.015456557 0.005526314 0.0089208037 9.219563e-39
0.0071533583 0.0067208689 0.0062902174 9.219563e-39
0.017053971 0.005296499 0.0085127512 9.219563e-39
0.015783818 0.0054792319 0.0074945963 9.219563e-39
0.018879125 0.0050339201 0.0079404321 9.219563e-39
0.0087783653 0.0064870846 0.0036900279 9.219563e-39
0.0074165897 0.006682999 0.0036404135 9.219563e-39
0.01896045 0.0050222198 0.0070218197 9.219563e-39
0.013948612 0.0057432572 0.0059720189 9.219563e-39
0.015111413 0.0055759689 0.0069551356 9.219563e-39
0.0065249344 0.0068112784 0.0088821352 9.219563e-39
0.0055572344 0.0069504986 0.010192602 9.219563e-39
0.0092417598 0.0064204172 0.0021040686 9.219563e-39
0.014571732 0.0056536109 0.0047703907 9.219563e-39
0.021073332 0.0047182464 0.0054749846 9.219563e-39
0.010137169 0.0062915976 0.0073969676 9.219563e-39
0.0085473293 0.006520323 0.0090887668 9.219563e-39
0.017129315 0.0052856598 0.0062189195 9.219563e-39
0.0066344296 0.0067955256 0.0018261266 9.219563e-39
0.0057962732 0.0069161085 0.0041950988 9.219563e-39
0.011476405 0.0060989261 0.0089066802 9.219563e-39
0.0071153622 0.0067263353 0.010208443 9.219563e-39
0.0069194878 0.0067545152 0.0057141189 9.219563e-39
0.0057704276 0.0069198268 0.0095636072 9.219563e-39
0.013287737 0.0058383355 0.0066616568 9.219563e-39
0.0088366894 0.0064786938 0.0087518347 9.219563e-39
0.010958335 0.0061734589 0.010533211 9.219563e-39
0.0087384917 0.006492821 0.0021669038 9.219563e-39
0.0058435742 0.0069093034 0.0039470936 9.219563e-39
0.0078404276 0.0066220225 0.0048177461 9.219563e-39
0.0097950604 0.0063408157 0.0035606243 9.219563e-39
0.018719373 0.0050569032 0.006065432 9.219563e-39
0.011348625 0.0061173094 0.0081995474 9.219563e-39
0.0057063345 0.0069290479 0.0030282331 9.219563e-39
0.013584361 0.0057956609 0.0085799275 9.219563e-39
0.018990623 0.005017879 0.0057097049 9.219563e-39
0.0050192527 0.0070278961 0.007246756 9.219563e-39
0.012080216 0.0060120579 0.0028587622 9.219563e-39
0.0082257772 0.0065665836 0.0064357291 9.219563e-39
0.016604379 0.0053611808 0.008022354 9.219563e-39
0.0098597258 0.0063315127 0.0060964264 9.219563e-39
0.016762396 0.0053384472 0.0086814221 9.219563e-39
0.015771264 0.0054810382 0.0066336808 9.219563e-39
0.0062868269 0.0068455343 0.0077947481 9.219563e-39
0.0089899143 0.0064566494 0.002478146 9.219563e-39
0.0062038344 0.0068574739 0.011113239 9.219563e-39
0.014134306 0.0057165422 0.005366968 9.219563e-39
0.011589542 0.0060826493 0.0036587601 9.219563e-39
0.011292483 0.0061253863 0.0049231723 9.219563e-39
0.0058402051 0.0069097881 0.0062778392 9.219563e-39
